0 0 0  0 0 0  0 0 0  0 0 0  0 0 0  0 0 0  0 0 0  0 0 0  0 0 0  0 0 0  0 0 0  0 0 0  0 0 0  0 0 0  0 0 0  0 0 0  0 0 0  0 0 0  0 0 0  0 0 0  0 0 0  0 0 0  0 0 0  0 0 0  0 0 0  0 0 0  0 0 0  0 0 0  0 0 0  0 0 0  0 0 0  0 0 0  0 0 0  0 0 0  0 0 0  0 0 0  0 0 0  0 0 0  0 0 0  0 0 0  0 0 0  0 0 0  0 0 0  0 0 0  0 0 0  0 0 0  0 0 0  0 0 0  0 0 0  0 0 0  0 0 0  0 0 0  0 0 0  0 0 0  0 0 0  0 0 0  0 0 0  0 0 0  0 0 0  0 0 0  0 0 0  0 0 0  0 0 0  0 0 0  0 0 0  0 0 0  0 0 0  0 0 0  0 0 0  0 0 0  0 0 0  0 0 0  0 0 0  0 0 0  0 0 0  0 0 0  0 0 0  0 0 0  0 0 0  0 0 0  0 0 0  0 0 0  0 0 0  0 0 0  0 0 0  0 0 0  0 0 0  0 0 0  0 0 0  0 0 0  0 0 0  0 0 0  0 0 0  0 0 0  0 0 0  0 0 0  0 0 0  0 0 0  0 0 0  0 0 0  0 0 0  0 0 0  0 0 0  0 0 0  0 0 0  0 0 0  0 0 0  0 0 0  0 0 0  0 0 0  0 0 0  0 0 0  0 0 0  0 0 0  0 0 0  0 0 0  0 0 0  0 0 0  0 0 0  0 0 0  0 0 0  0 0 0  0 0 0  0 0 0  0 0 0  0 0 0  0 0 0  0 0 0  0 0 0  0 0 0  0 0 0  0 0 0  0 0 0  0 0 0  0 0 0  0 0 0  0 0 0  0 0 0  0 0 0  0 0 0  0 0 0  0 0 0  0 0 0  0 0 0  0 0 0  0 0 0  0 0 0  0 0 0  0 0 0  0 0 0  0 0 0  0 0 0  0 0 0  0 0 0  0 0 0  0 0 0  568 568 568  567 567 567  566 566 566  564 564 564  563 563 563  562 562 562  561 561 561  562 562 562  562 562 562  562 562 562  562 562 562  563 563 563  563 563 563  564 564 564  565 565 565  566 566 566  566 566 566  567 567 567  568 568 568  568 568 568  569 569 569  570 570 570  571 571 571  571 571 571  572 572 572  574 574 574  575 575 575  577 577 577  579 579 579  581 581 581  584 584 584  588 588 588  591 591 591  594 594 594  596 596 596  597 597 597  598 598 598  600 600 600  603 603 603  604 604 604  0 0 0  0 0 0  0 0 0  0 0 0  602 602 602  598 598 598  592 592 592  0 0 0  0 0 0  0 0 0  644 644 644  0 0 0  650 650 650  648 648 648  651 651 651  653 653 653  654 654 654  656 656 656  657 657 657  658 658 658  660 660 660  661 661 661  663 663 663  664 664 664  665 665 665  666 666 666  667 667 667  667 667 667  668 668 668  668 668 668  668 668 668  668 668 668  669 669 669  670 670 670  670 670 670  670 670 670  671 671 671  672 672 672  672 672 672  674 674 674  674 674 674  675 675 675  676 676 676  677 677 677  677 677 677  678 678 678  678 678 678  679 679 679  680 680 680  681 681 681  682 682 682  683 683 683  683 683 683  683 683 683  684 684 684  683 683 683  684 684 684  683 683 683  683 683 683  683 683 683  684 684 684  685 685 685  685 685 685  686 686 686  687 687 687  688 688 688  688 688 688  690 690 690  691 691 691  692 692 692  693 693 693  694 694 694  694 694 694  696 696 696  697 697 697  697 697 697  698 698 698  698 698 698  698 698 698  699 699 699  699 699 699  700 700 700  701 701 701  702 702 702  704 704 704  705 705 705  708 708 708  710 710 710  712 712 712  713 713 713  713 713 713  715 715 715  716 716 716  717 717 717  719 719 719  720 720 720  721 721 721  722 722 722  722 722 722  724 724 724  724 724 724  724 724 724  726 726 726  726 726 726  726 726 726  728 728 728  727 727 727  728 728 728  729 729 729  729 729 729  730 730 730  730 730 730  730 730 730  731 731 731  731 731 731  729 729 729  730 730 730  728 728 728  728 728 728  726 726 726  724 724 724  723 723 723  721 721 721  720 720 720  718 718 718  715 715 715  715 715 715  714 714 714  712 712 712  711 711 711  709 709 709  710 710 710  708 708 708  707 707 707  706 706 706  706 706 706  706 706 706  705 705 705  705 705 705  705 705 705  704 704 704  704 704 704  704 704 704  703 703 703  702 702 702  703 703 703  702 702 702  703 703 703  703 703 703  702 702 702  703 703 703  702 702 702  702 702 702  702 702 702  702 702 702  0 0 0  0 0 0  0 0 0  0 0 0  0 0 0  0 0 0  0 0 0  0 0 0  0 0 0  0 0 0  0 0 0  717 717 717  717 717 717  717 717 717  718 718 718  717 717 717  716 716 716  715 715 715  715 715 715  715 715 715  715 715 715  714 714 714  715 715 715  714 714 714  713 713 713  713 713 713  710 710 710  707 707 707  703 703 703  698 698 698  695 695 695  692 692 692  691 691 691  691
0 0 0  0 0 0  0 0 0  0 0 0  0 0 0  0 0 0  0 0 0  0 0 0  0 0 0  0 0 0  0 0 0  0 0 0  0 0 0  0 0 0  0 0 0  0 0 0  0 0 0  0 0 0  0 0 0  0 0 0  0 0 0  0 0 0  0 0 0  0 0 0  0 0 0  0 0 0  0 0 0  0 0 0  0 0 0  0 0 0  0 0 0  0 0 0  0 0 0  0 0 0  0 0 0  0 0 0  0 0 0  0 0 0  0 0 0  0 0 0  0 0 0  0 0 0  0 0 0  0 0 0  0 0 0  0 0 0  0 0 0  0 0 0  0 0 0  0 0 0  0 0 0  0 0 0  0 0 0  0 0 0  0 0 0  0 0 0  0 0 0  0 0 0  0 0 0  0 0 0  0 0 0  0 0 0  0 0 0  0 0 0  0 0 0  0 0 0  0 0 0  0 0 0  0 0 0  0 0 0  0 0 0  0 0 0  0 0 0  0 0 0  0 0 0  0 0 0  0 0 0  0 0 0  0 0 0  0 0 0  0 0 0  0 0 0  0 0 0  0 0 0  0 0 0  0 0 0  0 0 0  0 0 0  0 0 0  0 0 0  0 0 0  0 0 0  0 0 0  0 0 0  0 0 0  0 0 0  0 0 0  0 0 0  0 0 0  0 0 0  0 0 0  0 0 0  0 0 0  0 0 0  0 0 0  0 0 0  0 0 0  0 0 0  0 0 0  0 0 0  0 0 0  0 0 0  0 0 0  0 0 0  0 0 0  0 0 0  0 0 0  0 0 0  0 0 0  0 0 0  0 0 0  0 0 0  0 0 0  0 0 0  0 0 0  0 0 0  0 0 0  0 0 0  0 0 0  0 0 0  0 0 0  0 0 0  0 0 0  0 0 0  0 0 0  0 0 0  0 0 0  0 0 0  0 0 0  0 0 0  0 0 0  0 0 0  0 0 0  0 0 0  0 0 0  0 0 0  0 0 0  0 0 0  0 0 0  0 0 0  0 0 0  0 0 0  0 0 0  0 0 0  0 0 0  0 0 0  569 569 569  567 567 567  566 566 566  562 562 562  561 561 561  559 559 559  559 559 559  561 561 561  562 562 562  563 563 563  564 564 564  564 564 564  563 563 563  564 564 564  564 564 564  565 565 565  567 567 567  568 568 568  569 569 569  570 570 570  570 570 570  571 571 571  572 572 572  573 573 573  574 574 574  576 576 576  577 577 577  578 578 578  580 580 580  582 582 582  584 584 584  587 587 587  589 589 589  590 590 590  593 593 593  595 595 595  597 597 597  600 600 600  599 599 599  599 599 599  0 0 0  0 0 0  0 0 0  0 0 0  0 0 0  0 0 0  0 0 0  0 0 0  0 0 0  0 0 0  648 648 648  649 649 649  652 652 652  649 649 649  651 651 651  652 652 652  653 653 653  655 655 655  656 656 656  657 657 657  660 660 660  661 661 661  662 662 662  663 663 663  664 664 664  665 665 665  666 666 666  666 666 666  667 667 667  667 667 667  667 667 667  668 668 668  668 668 668  669 669 669  669 669 669  669 669 669  670 670 670  670 670 670  670 670 670  671 671 671  672 672 672  672 672 672  673 673 673  674 674 674  674 674 674  675 675 675  676 676 676  678 678 678  680 680 680  681 681 681  682 682 682  682 682 682  682 682 682  682 682 682  682 682 682  682 682 682  683 683 683  682 682 682  682 682 682  682 682 682  683 683 683  684 684 684  685 685 685  685 685 685  686 686 686  686 686 686  686 686 686  688 688 688  689 689 689  690 690 690  691 691 691  692 692 692  693 693 693  695 695 695  696 696 696  696 696 696  697 697 697  697 697 697  698 698 698  698 698 698  699 699 699  700 700 700  701 701 701  701 701 701  703 703 703  704 704 704  705 705 705  707 707 707  709 709 709  710 710 710  711 711 711  713 713 713  715 715 715  716 716 716  718 718 718  718 718 718  720 720 720  721 721 721  721 721 721  723 723 723  724 724 724  724 724 724  726 726 726  726 726 726  725 725 725  727 727 727  727 727 727  727 727 727  728 728 728  728 728 728  730 730 730  730 730 730  730 730 730  731 731 731  730 730 730  729 729 729  729 729 729  727 727 727  727 727 727  725 725 725  722 722 722  721 721 721  719 719 719  718 718 718  716 716 716  714 714 714  713 713 713  712 712 712  711 711 711  710 710 710  708 708 708  709 709 709  707 707 707  706 706 706  706 706 706  705 705 705  705 705 705  705 705 705  704 704 704  704 704 704  704 704 704  703 703 703  703 703 703  703 703 703  702 702 702  702 702 702  702 702 702  702 702 702  702 702 702  701 701 701  702 702 702  701 701 701  701 701 701  701 701 701  701 701 701  0 0 0  0 0 0  0 0 0  0 0 0  0 0 0  0 0 0  0 0 0  0 0 0  0 0 0  0 0 0  0 0 0  0 0 0  0 0 0  717 717 717  718 718 718  717 717 717  715 715 715  714 714 714  714 714 714  713 713 713  714 714 714  714 714 714  714 714 714  714 714 714  713 713 713  714 714 714  712 712 712  709 709 709  705 705 705  698 698 698  694 694 694  691 691 691  690 690 690  690
0 0 0  0 0 0  0 0 0  0 0 0  0 0 0  0 0 0  0 0 0  0 0 0  0 0 0  0 0 0  0 0 0  0 0 0  0 0 0  0 0 0  0 0 0  0 0 0  0 0 0  0 0 0  0 0 0  0 0 0  0 0 0  0 0 0  0 0 0  0 0 0  0 0 0  0 0 0  0 0 0  0 0 0  0 0 0  0 0 0  0 0 0  0 0 0  0 0 0  0 0 0  0 0 0  0 0 0  0 0 0  0 0 0  0 0 0  0 0 0  0 0 0  0 0 0  0 0 0  0 0 0  0 0 0  0 0 0  0 0 0  0 0 0  0 0 0  0 0 0  0 0 0  0 0 0  0 0 0  0 0 0  0 0 0  0 0 0  0 0 0  0 0 0  0 0 0  0 0 0  0 0 0  0 0 0  0 0 0  0 0 0  0 0 0  0 0 0  0 0 0  0 0 0  0 0 0  0 0 0  0 0 0  0 0 0  0 0 0  0 0 0  0 0 0  0 0 0  0 0 0  0 0 0  0 0 0  0 0 0  0 0 0  0 0 0  0 0 0  0 0 0  0 0 0  0 0 0  0 0 0  0 0 0  0 0 0  0 0 0  0 0 0  0 0 0  0 0 0  0 0 0  0 0 0  0 0 0  0 0 0  0 0 0  0 0 0  0 0 0  0 0 0  0 0 0  0 0 0  0 0 0  0 0 0  0 0 0  0 0 0  0 0 0  0 0 0  0 0 0  0 0 0  0 0 0  0 0 0  0 0 0  0 0 0  0 0 0  0 0 0  0 0 0  0 0 0  0 0 0  0 0 0  0 0 0  0 0 0  0 0 0  0 0 0  0 0 0  0 0 0  0 0 0  0 0 0  0 0 0  0 0 0  0 0 0  0 0 0  0 0 0  0 0 0  0 0 0  0 0 0  0 0 0  0 0 0  0 0 0  0 0 0  0 0 0  0 0 0  0 0 0  0 0 0  0 0 0  0 0 0  0 0 0  0 0 0  0 0 0  0 0 0  0 0 0  0 0 0  0 0 0  0 0 0  0 0 0  0 0 0  0 0 0  0 0 0  0 0 0  556 556 556  556 556 556  559 559 559  561 561 561  563 563 563  565 565 565  567 567 567  567 567 567  565 565 565  566 566 566  566 566 566  567 567 567  568 568 568  569 569 569  569 569 569  570 570 570  571 571 571  572 572 572  573 573 573  574 574 574  575 575 575  577 577 577  578 578 578  579 579 579  582 582 582  584 584 584  586 586 586  589 589 589  592 592 592  594 594 594  596 596 596  598 598 598  599 599 599  601 601 601  599 599 599  598 598 598  0 0 0  0 0 0  0 0 0  0 0 0  0 0 0  0 0 0  0 0 0  0 0 0  0 0 0  0 0 0  648 648 648  648 648 648  649 649 649  648 648 648  649 649 649  650 650 650  651 651 651  652 652 652  653 653 653  655 655 655  657 657 657  658 658 658  660 660 660  661 661 661  662 662 662  663 663 663  664 664 664  664 664 664  665 665 665  666 666 666  666 666 666  667 667 667  667 667 667  668 668 668  668 668 668  668 668 668  669 669 669  668 668 668  668 668 668  669 669 669  670 670 670  671 671 671  671 671 671  672 672 672  673 673 673  674 674 674  675 675 675  677 677 677  678 678 678  680 680 680  680 680 680  681 681 681  680 680 680  680 680 680  681 681 681  681 681 681  682 682 682  681 681 681  681 681 681  682 682 682  682 682 682  683 683 683  684 684 684  684 684 684  685 685 685  686 686 686  686 686 686  688 688 688  689 689 689  690 690 690  691 691 691  692 692 692  692 692 692  694 694 694  695 695 695  695 695 695  696 696 696  696 696 696  697 697 697  698 698 698  698 698 698  699 699 699  700 700 700  701 701 701  702 702 702  704 704 704  705 705 705  706 706 706  708 708 708  709 709 709  711 711 711  712 712 712  713 713 713  715 715 715  716 716 716  716 716 716  717 717 717  718 718 718  719 719 719  720 720 720  721 721 721  722 722 722  724 724 724  724 724 724  724 724 724  725 725 725  726 726 726  727 727 727  728 728 728  728 728 728  730 730 730  730 730 730  729 729 729  730 730 730  729 729 729  728 728 728  728 728 728  726 726 726  726 726 726  724 724 724  721 721 721  720 720 720  717 717 717  717 717 717  714 714 714  712 712 712  711 711 711  711 711 711  710 710 710  710 710 710  708 708 708  709 709 709  708 708 708  707 707 707  706 706 706  705 705 705  704 704 704  704 704 704  703 703 703  704 704 704  703 703 703  702 702 702  702 702 702  702 702 702  702 702 702  702 702 702  701 701 701  702 702 702  701 701 701  700 700 700  701 701 701  700 700 700  700 700 700  700 700 700  700 700 700  0 0 0  0 0 0  0 0 0  0 0 0  0 0 0  0 0 0  0 0 0  0 0 0  0 0 0  0 0 0  0 0 0  0 0 0  0 0 0  711 711 711  713 713 713  712 712 712  712 712 712  712 712 712  712 712 712  713 713 713  713 713 713  713 713 713  714 714 714  714 714 714  714 714 714  715 715 715  714 714 714  712 712 712  710 710 710  705 705 705  704 704 704  696 696 696  691 691 691  688
0 0 0  0 0 0  0 0 0  0 0 0  0 0 0  0 0 0  0 0 0  0 0 0  0 0 0  0 0 0  0 0 0  0 0 0  0 0 0  0 0 0  0 0 0  0 0 0  0 0 0  0 0 0  0 0 0  0 0 0  0 0 0  0 0 0  0 0 0  0 0 0  0 0 0  0 0 0  0 0 0  0 0 0  0 0 0  0 0 0  0 0 0  0 0 0  0 0 0  0 0 0  0 0 0  0 0 0  0 0 0  0 0 0  0 0 0  0 0 0  0 0 0  0 0 0  0 0 0  0 0 0  0 0 0  0 0 0  0 0 0  0 0 0  0 0 0  0 0 0  0 0 0  0 0 0  0 0 0  0 0 0  0 0 0  0 0 0  0 0 0  0 0 0  0 0 0  0 0 0  0 0 0  0 0 0  0 0 0  0 0 0  0 0 0  0 0 0  0 0 0  0 0 0  0 0 0  0 0 0  0 0 0  0 0 0  0 0 0  0 0 0  0 0 0  0 0 0  0 0 0  0 0 0  0 0 0  0 0 0  0 0 0  0 0 0  0 0 0  0 0 0  0 0 0  0 0 0  0 0 0  0 0 0  0 0 0  0 0 0  0 0 0  0 0 0  0 0 0  0 0 0  0 0 0  0 0 0  0 0 0  0 0 0  0 0 0  0 0 0  0 0 0  0 0 0  0 0 0  0 0 0  0 0 0  0 0 0  0 0 0  0 0 0  0 0 0  0 0 0  0 0 0  0 0 0  0 0 0  0 0 0  0 0 0  0 0 0  0 0 0  0 0 0  0 0 0  0 0 0  0 0 0  0 0 0  0 0 0  0 0 0  0 0 0  0 0 0  0 0 0  0 0 0  0 0 0  0 0 0  0 0 0  0 0 0  0 0 0  0 0 0  0 0 0  0 0 0  0 0 0  0 0 0  0 0 0  0 0 0  0 0 0  0 0 0  0 0 0  0 0 0  0 0 0  0 0 0  0 0 0  0 0 0  0 0 0  0 0 0  0 0 0  0 0 0  0 0 0  0 0 0  0 0 0  0 0 0  0 0 0  0 0 0  0 0 0  0 0 0  0 0 0  551 551 551  556 556 556  560 560 560  563 563 563  565 565 565  568 568 568  567 567 567  566 566 566  566 566 566  567 567 567  567 567 567  569 569 569  570 570 570  570 570 570  571 571 571  572 572 572  573 573 573  574 574 574  575 575 575  576 576 576  578 578 578  579 579 579  580 580 580  583 583 583  585 585 585  588 588 588  591 591 591  594 594 594  596 596 596  598 598 598  600 600 600  600 600 600  602 602 602  598 598 598  597 597 597  0 0 0  0 0 0  0 0 0  0 0 0  0 0 0  0 0 0  0 0 0  0 0 0  0 0 0  0 0 0  650 650 650  649 649 649  647 647 647  647 647 647  648 648 648  648 648 648  649 649 649  650 650 650  650 650 650  652 652 652  654 654 654  656 656 656  658 658 658  659 659 659  659 659 659  661 661 661  662 662 662  662 662 662  664 664 664  664 664 664  665 665 665  666 666 666  666 666 666  667 667 667  667 667 667  667 667 667  668 668 668  668 668 668  667 667 667  669 669 669  669 669 669  670 670 670  671 671 671  671 671 671  672 672 672  673 673 673  674 674 674  675 675 675  677 677 677  678 678 678  679 679 679  679 679 679  679 679 679  679 679 679  680 680 680  679 679 679  680 680 680  680 680 680  680 680 680  681 681 681  682 682 682  682 682 682  684 684 684  684 684 684  685 685 685  686 686 686  687 687 687  688 688 688  690 690 690  690 690 690  692 692 692  693 693 693  693 693 693  694 694 694  695 695 695  695 695 695  696 696 696  696 696 696  696 696 696  697 697 697  698 698 698  698 698 698  699 699 699  700 700 700  701 701 701  701 701 701  701 701 701  703 703 703  704 704 704  706 706 706  708 708 708  710 710 710  711 711 711  713 713 713  713 713 713  714 714 714  715 715 715  716 716 716  717 717 717  718 718 718  719 719 719  719 719 719  721 721 721  722 722 722  722 722 722  724 724 724  724 724 724  726 726 726  727 727 727  727 727 727  729 729 729  729 729 729  729 729 729  730 730 730  729 729 729  728 728 728  728 728 728  726 726 726  726 726 726  724 724 724  722 722 722  720 720 720  717 717 717  716 716 716  714 714 714  711 711 711  711 711 711  710 710 710  709 709 709  709 709 709  708 708 708  708 708 708  708 708 708  707 707 707  706 706 706  705 705 705  704 704 704  703 703 703  702 702 702  703 703 703  702 702 702  701 701 701  701 701 701  701 701 701  701 701 701  701 701 701  700 700 700  701 701 701  700 700 700  699 699 699  700 700 700  699 699 699  699 699 699  699 699 699  698 698 698  699 699 699  0 0 0  0 0 0  0 0 0  0 0 0  0 0 0  0 0 0  0 0 0  0 0 0  0 0 0  0 0 0  0 0 0  0 0 0  706 706 706  708 708 708  0 0 0  0 0 0  0 0 0  705 705 705  708 708 708  710 710 710  710 710 710  711 711 711  712 712 712  712 712 712  713 713 713  712 712 712  711 711 711  710 710 710  707 707 707  707 707 707  0 0 0  693 693 693  689
0 0 0  0 0 0  0 0 0  0 0 0  0 0 0  0 0 0  0 0 0  0 0 0  0 0 0  0 0 0  0 0 0  0 0 0  0 0 0  0 0 0  0 0 0  0 0 0  0 0 0  0 0 0  0 0 0  0 0 0  0 0 0  0 0 0  0 0 0  0 0 0  0 0 0  0 0 0  0 0 0  0 0 0  0 0 0  0 0 0  0 0 0  0 0 0  0 0 0  0 0 0  0 0 0  0 0 0  0 0 0  0 0 0  0 0 0  0 0 0  0 0 0  0 0 0  0 0 0  0 0 0  0 0 0  0 0 0  0 0 0  0 0 0  0 0 0  0 0 0  0 0 0  0 0 0  0 0 0  0 0 0  0 0 0  0 0 0  0 0 0  0 0 0  0 0 0  0 0 0  0 0 0  0 0 0  0 0 0  0 0 0  0 0 0  0 0 0  0 0 0  0 0 0  0 0 0  0 0 0  0 0 0  0 0 0  0 0 0  0 0 0  0 0 0  0 0 0  0 0 0  0 0 0  0 0 0  0 0 0  0 0 0  0 0 0  0 0 0  0 0 0  0 0 0  0 0 0  0 0 0  0 0 0  0 0 0  0 0 0  0 0 0  0 0 0  0 0 0  0 0 0  0 0 0  0 0 0  0 0 0  0 0 0  0 0 0  0 0 0  0 0 0  0 0 0  0 0 0  0 0 0  0 0 0  0 0 0  0 0 0  0 0 0  0 0 0  0 0 0  0 0 0  0 0 0  0 0 0  0 0 0  0 0 0  0 0 0  0 0 0  0 0 0  0 0 0  0 0 0  0 0 0  0 0 0  0 0 0  0 0 0  0 0 0  0 0 0  0 0 0  0 0 0  0 0 0  0 0 0  0 0 0  0 0 0  0 0 0  0 0 0  0 0 0  0 0 0  0 0 0  0 0 0  0 0 0  0 0 0  0 0 0  0 0 0  0 0 0  0 0 0  0 0 0  0 0 0  0 0 0  0 0 0  0 0 0  0 0 0  0 0 0  0 0 0  0 0 0  0 0 0  0 0 0  0 0 0  0 0 0  0 0 0  0 0 0  0 0 0  0 0 0  0 0 0  560 560 560  0 0 0  563 563 563  563 563 563  566 566 566  566 566 566  567 567 567  568 568 568  569 569 569  569 569 569  571 571 571  571 571 571  571 571 571  572 572 572  573 573 573  574 574 574  575 575 575  576 576 576  576 576 576  578 578 578  580 580 580  582 582 582  584 584 584  587 587 587  590 590 590  593 593 593  596 596 596  598 598 598  601 601 601  602 602 602  602 602 602  604 604 604  603 603 603  602 602 602  0 0 0  0 0 0  0 0 0  0 0 0  0 0 0  0 0 0  0 0 0  0 0 0  0 0 0  0 0 0  645 645 645  646 646 646  644 644 644  646 646 646  646 646 646  646 646 646  647 647 647  648 648 648  649 649 649  651 651 651  652 652 652  653 653 653  655 655 655  656 656 656  658 658 658  659 659 659  661 661 661  661 661 661  663 663 663  663 663 663  664 664 664  665 665 665  666 666 666  666 666 666  667 667 667  666 666 666  667 667 667  667 667 667  667 667 667  668 668 668  669 669 669  669 669 669  670 670 670  671 671 671  672 672 672  673 673 673  674 674 674  675 675 675  675 675 675  676 676 676  677 677 677  677 677 677  677 677 677  678 678 678  678 678 678  678 678 678  679 679 679  679 679 679  679 679 679  680 680 680  681 681 681  682 682 682  683 683 683  684 684 684  685 685 685  686 686 686  687 687 687  689 689 689  690 690 690  691 691 691  692 692 692  693 693 693  693 693 693  694 694 694  695 695 695  694 694 694  696 696 696  696 696 696  696 696 696  696 696 696  697 697 697  698 698 698  698 698 698  698 698 698  700 700 700  699 699 699  699 699 699  701 701 701  702 702 702  703 703 703  706 706 706  708 708 708  709 709 709  711 711 711  711 711 711  712 712 712  713 713 713  714 714 714  715 715 715  716 716 716  717 717 717  718 718 718  719 719 719  720 720 720  721 721 721  722 722 722  722 722 722  723 723 723  725 725 725  725 725 725  727 727 727  728 728 728  728 728 728  729 729 729  728 728 728  728 728 728  727 727 727  726 726 726  726 726 726  724 724 724  721 721 721  720 720 720  717 717 717  716 716 716  713 713 713  711 711 711  710 710 710  709 709 709  709 709 709  708 708 708  707 707 707  707 707 707  707 707 707  707 707 707  706 706 706  704 704 704  703 703 703  703 703 703  702 702 702  702 702 702  702 702 702  701 701 701  701 701 701  701 701 701  701 701 701  701 701 701  700 700 700  700 700 700  699 699 699  699 699 699  699 699 699  698 698 698  698 698 698  698 698 698  697 697 697  696 696 696  692 692 692  0 0 0  0 0 0  0 0 0  0 0 0  0 0 0  0 0 0  0 0 0  0 0 0  0 0 0  0 0 0  0 0 0  0 0 0  0 0 0  0 0 0  0 0 0  0 0 0  0 0 0  0 0 0  0 0 0  706 706 706  708 708 708  708 708 708  709 709 709  710 710 710  710 710 710  710 710 710  710 710 710  710 710 710  0 0 0  702 702 702  696 696 696  690
0 0 0  0 0 0  0 0 0  0 0 0  0 0 0  0 0 0  0 0 0  0 0 0  0 0 0  0 0 0  0 0 0  0 0 0  0 0 0  0 0 0  0 0 0  0 0 0  0 0 0  0 0 0  0 0 0  0 0 0  0 0 0  0 0 0  0 0 0  0 0 0  0 0 0  0 0 0  0 0 0  0 0 0  0 0 0  0 0 0  0 0 0  0 0 0  0 0 0  0 0 0  0 0 0  0 0 0  0 0 0  0 0 0  0 0 0  0 0 0  0 0 0  0 0 0  0 0 0  0 0 0  0 0 0  0 0 0  0 0 0  0 0 0  0 0 0  0 0 0  0 0 0  0 0 0  0 0 0  0 0 0  0 0 0  0 0 0  0 0 0  0 0 0  0 0 0  0 0 0  0 0 0  0 0 0  0 0 0  0 0 0  0 0 0  0 0 0  0 0 0  0 0 0  0 0 0  0 0 0  0 0 0  0 0 0  0 0 0  0 0 0  0 0 0  0 0 0  0 0 0  0 0 0  0 0 0  0 0 0  0 0 0  0 0 0  0 0 0  0 0 0  0 0 0  0 0 0  0 0 0  0 0 0  0 0 0  0 0 0  0 0 0  0 0 0  0 0 0  0 0 0  0 0 0  0 0 0  0 0 0  0 0 0  0 0 0  0 0 0  0 0 0  0 0 0  0 0 0  0 0 0  0 0 0  0 0 0  0 0 0  0 0 0  0 0 0  0 0 0  0 0 0  0 0 0  0 0 0  0 0 0  0 0 0  0 0 0  0 0 0  0 0 0  0 0 0  0 0 0  0 0 0  0 0 0  0 0 0  0 0 0  0 0 0  0 0 0  0 0 0  0 0 0  0 0 0  0 0 0  0 0 0  0 0 0  0 0 0  0 0 0  0 0 0  0 0 0  0 0 0  0 0 0  0 0 0  0 0 0  0 0 0  0 0 0  0 0 0  0 0 0  0 0 0  0 0 0  0 0 0  0 0 0  0 0 0  0 0 0  0 0 0  0 0 0  0 0 0  0 0 0  0 0 0  0 0 0  0 0 0  0 0 0  0 0 0  0 0 0  0 0 0  0 0 0  0 0 0  0 0 0  0 0 0  0 0 0  572 572 572  564 564 564  564 564 564  566 566 566  568 568 568  569 569 569  570 570 570  571 571 571  572 572 572  573 573 573  574 574 574  575 575 575  576 576 576  577 577 577  578 578 578  579 579 579  581 581 581  583 583 583  583 583 583  584 584 584  586 586 586  589 589 589  593 593 593  594 594 594  598 598 598  602 602 602  603 603 603  606 606 606  606 606 606  0 0 0  0 0 0  0 0 0  0 0 0  0 0 0  0 0 0  0 0 0  0 0 0  0 0 0  0 0 0  0 0 0  0 0 0  0 0 0  0 0 0  646 646 646  646 646 646  646 646 646  646 646 646  648 648 648  649 649 649  650 650 650  651 651 651  652 652 652  654 654 654  656 656 656  657 657 657  659 659 659  660 660 660  661 661 661  662 662 662  663 663 663  664 664 664  664 664 664  665 665 665  666 666 666  666 666 666  666 666 666  667 667 667  667 667 667  666 666 666  668 668 668  668 668 668  669 669 669  670 670 670  670 670 670  672 672 672  672 672 672  673 673 673  674 674 674  675 675 675  675 675 675  676 676 676  676 676 676  676 676 676  677 677 677  677 677 677  677 677 677  677 677 677  678 678 678  679 679 679  679 679 679  680 680 680  681 681 681  682 682 682  683 683 683  684 684 684  686 686 686  687 687 687  688 688 688  690 690 690  690 690 690  692 692 692  692 692 692  693 693 693  694 694 694  694 694 694  694 694 694  695 695 695  695 695 695  695 695 695  696 696 696  696 696 696  697 697 697  698 698 698  698 698 698  699 699 699  698 698 698  697 697 697  699 699 699  700 700 700  701 701 701  705 705 705  707 707 707  708 708 708  709 709 709  711 711 711  711 711 711  713 713 713  714 714 714  715 715 715  715 715 715  716 716 716  717 717 717  719 719 719  719 719 719  720 720 720  720 720 720  720 720 720  721 721 721  722 722 722  723 723 723  725 725 725  726 726 726  726 726 726  727 727 727  727 727 727  727 727 727  727 727 727  725 725 725  725 725 725  723 723 723  721 721 721  719 719 719  716 716 716  715 715 715  713 713 713  710 710 710  709 709 709  708 708 708  708 708 708  707 707 707  705 705 705  705 705 705  705 705 705  704 704 704  704 704 704  703 703 703  702 702 702  702 702 702  701 701 701  701 701 701  701 701 701  701 701 701  701 701 701  700 700 700  701 701 701  700 700 700  700 700 700  700 700 700  699 699 699  698 698 698  698 698 698  697 697 697  697 697 697  697 697 697  695 695 695  694 694 694  692 692 692  691 691 691  0 0 0  0 0 0  0 0 0  685 685 685  684 684 684  685 685 685  0 0 0  0 0 0  0 0 0  0 0 0  0 0 0  0 0 0  0 0 0  0 0 0  0 0 0  0 0 0  0 0 0  0 0 0  702 702 702  707 707 707  709 709 709  711 711 711  711 711 711  710 710 710  708 708 708  707 707 707  704 704 704  704 704 704  698 698 698  696 696 696  692
0 0 0  0 0 0  0 0 0  0 0 0  0 0 0  0 0 0  0 0 0  0 0 0  0 0 0  0 0 0  0 0 0  0 0 0  0 0 0  0 0 0  0 0 0  0 0 0  0 0 0  0 0 0  0 0 0  0 0 0  0 0 0  0 0 0  0 0 0  0 0 0  0 0 0  0 0 0  0 0 0  0 0 0  0 0 0  0 0 0  0 0 0  0 0 0  0 0 0  0 0 0  0 0 0  0 0 0  0 0 0  0 0 0  0 0 0  0 0 0  0 0 0  0 0 0  0 0 0  0 0 0  0 0 0  0 0 0  0 0 0  0 0 0  0 0 0  0 0 0  0 0 0  0 0 0  0 0 0  0 0 0  0 0 0  0 0 0  0 0 0  0 0 0  0 0 0  0 0 0  0 0 0  0 0 0  0 0 0  0 0 0  0 0 0  0 0 0  0 0 0  0 0 0  0 0 0  0 0 0  0 0 0  0 0 0  0 0 0  0 0 0  0 0 0  0 0 0  0 0 0  0 0 0  0 0 0  0 0 0  0 0 0  0 0 0  0 0 0  0 0 0  0 0 0  0 0 0  0 0 0  0 0 0  0 0 0  0 0 0  0 0 0  0 0 0  0 0 0  0 0 0  0 0 0  0 0 0  0 0 0  0 0 0  0 0 0  0 0 0  0 0 0  0 0 0  0 0 0  0 0 0  0 0 0  0 0 0  0 0 0  0 0 0  0 0 0  0 0 0  0 0 0  0 0 0  0 0 0  0 0 0  0 0 0  0 0 0  0 0 0  0 0 0  0 0 0  0 0 0  0 0 0  0 0 0  0 0 0  0 0 0  0 0 0  0 0 0  0 0 0  0 0 0  0 0 0  0 0 0  0 0 0  0 0 0  0 0 0  0 0 0  0 0 0  0 0 0  0 0 0  0 0 0  0 0 0  0 0 0  0 0 0  0 0 0  0 0 0  0 0 0  0 0 0  0 0 0  0 0 0  0 0 0  0 0 0  0 0 0  0 0 0  0 0 0  0 0 0  0 0 0  0 0 0  0 0 0  0 0 0  0 0 0  0 0 0  0 0 0  0 0 0  580 580 580  0 0 0  0 0 0  0 0 0  579 579 579  575 575 575  564 564 564  564 564 564  567 567 567  570 570 570  572 572 572  574 574 574  574 574 574  573 573 573  574 574 574  575 575 575  576 576 576  577 577 577  577 577 577  578 578 578  579 579 579  580 580 580  580 580 580  580 580 580  580 580 580  582 582 582  0 0 0  589 589 589  592 592 592  597 597 597  602 602 602  605 605 605  607 607 607  608 608 608  608 608 608  609 609 609  0 0 0  0 0 0  0 0 0  0 0 0  595 595 595  594 594 594  0 0 0  0 0 0  0 0 0  0 0 0  0 0 0  0 0 0  0 0 0  642 642 642  644 644 644  645 645 645  646 646 646  647 647 647  649 649 649  650 650 650  651 651 651  654 654 654  655 655 655  656 656 656  658 658 658  659 659 659  660 660 660  662 662 662  662 662 662  663 663 663  664 664 664  664 664 664  665 665 665  666 666 666  665 665 665  666 666 666  666 666 666  666 666 666  667 667 667  668 668 668  669 669 669  669 669 669  670 670 670  671 671 671  672 672 672  673 673 673  674 674 674  674 674 674  674 674 674  676 676 676  676 676 676  675 675 675  676 676 676  676 676 676  676 676 676  677 677 677  677 677 677  678 678 678  678 678 678  679 679 679  680 680 680  681 681 681  682 682 682  683 683 683  685 685 685  686 686 686  688 688 688  689 689 689  690 690 690  691 691 691  692 692 692  692 692 692  693 693 693  693 693 693  693 693 693  694 694 694  694 694 694  695 695 695  695 695 695  696 696 696  697 697 697  697 697 697  697 697 697  700 700 700  699 699 699  699 699 699  700 700 700  702 702 702  703 703 703  705 705 705  706 706 706  708 708 708  709 709 709  710 710 710  711 711 711  712 712 712  713 713 713  714 714 714  715 715 715  716 716 716  717 717 717  718 718 718  718 718 718  719 719 719  719 719 719  718 718 718  719 719 719  720 720 720  720 720 720  722 722 722  724 724 724  724 724 724  726 726 726  726 726 726  726 726 726  726 726 726  724 724 724  724 724 724  722 722 722  719 719 719  718 718 718  715 715 715  715 715 715  712 712 712  710 710 710  709 709 709  707 707 707  707 707 707  705 705 705  704 704 704  703 703 703  702 702 702  702 702 702  702 702 702  701 701 701  701 701 701  701 701 701  700 700 700  700 700 700  700 700 700  700 700 700  700 700 700  700 700 700  700 700 700  700 700 700  699 699 699  700 700 700  699 699 699  698 698 698  698 698 698  696 696 696  696 696 696  695 695 695  694 694 694  693 693 693  691 691 691  692 692 692  691 691 691  689 689 689  687 687 687  686 686 686  684 684 684  684 684 684  0 0 0  0 0 0  0 0 0  0 0 0  0 0 0  0 0 0  0 0 0  0 0 0  0 0 0  0 0 0  0 0 0  0 0 0  0 0 0  705 705 705  710 710 710  713 713 713  713 713 713  709 709 709  706 706 706  705 705 705  702 702 702  702 702 702  697 697 697  695 695 695  691
0 0 0  0 0 0  0 0 0  0 0 0  0 0 0  0 0 0  0 0 0  0 0 0  0 0 0  0 0 0  0 0 0  0 0 0  0 0 0  0 0 0  0 0 0  0 0 0  0 0 0  0 0 0  0 0 0  0 0 0  0 0 0  0 0 0  0 0 0  0 0 0  0 0 0  0 0 0  0 0 0  0 0 0  0 0 0  0 0 0  0 0 0  0 0 0  0 0 0  0 0 0  0 0 0  0 0 0  0 0 0  0 0 0  0 0 0  0 0 0  0 0 0  0 0 0  0 0 0  0 0 0  0 0 0  0 0 0  0 0 0  0 0 0  0 0 0  0 0 0  0 0 0  0 0 0  0 0 0  0 0 0  0 0 0  0 0 0  0 0 0  0 0 0  0 0 0  0 0 0  0 0 0  0 0 0  0 0 0  0 0 0  0 0 0  0 0 0  0 0 0  0 0 0  0 0 0  0 0 0  0 0 0  0 0 0  0 0 0  0 0 0  0 0 0  0 0 0  0 0 0  0 0 0  0 0 0  0 0 0  0 0 0  0 0 0  0 0 0  0 0 0  0 0 0  0 0 0  0 0 0  0 0 0  0 0 0  0 0 0  0 0 0  0 0 0  0 0 0  0 0 0  0 0 0  0 0 0  0 0 0  0 0 0  0 0 0  0 0 0  0 0 0  0 0 0  0 0 0  0 0 0  0 0 0  0 0 0  0 0 0  0 0 0  0 0 0  0 0 0  0 0 0  0 0 0  0 0 0  0 0 0  0 0 0  0 0 0  0 0 0  0 0 0  0 0 0  0 0 0  0 0 0  0 0 0  0 0 0  0 0 0  0 0 0  0 0 0  0 0 0  0 0 0  0 0 0  0 0 0  0 0 0  0 0 0  0 0 0  0 0 0  0 0 0  0 0 0  0 0 0  0 0 0  0 0 0  0 0 0  0 0 0  0 0 0  0 0 0  0 0 0  0 0 0  0 0 0  0 0 0  0 0 0  0 0 0  0 0 0  0 0 0  0 0 0  0 0 0  0 0 0  0 0 0  0 0 0  0 0 0  0 0 0  0 0 0  0 0 0  584 584 584  586 586 586  585 585 585  0 0 0  0 0 0  0 0 0  0 0 0  565 565 565  564 564 564  568 568 568  572 572 572  575 575 575  576 576 576  576 576 576  574 574 574  576 576 576  576 576 576  577 577 577  578 578 578  578 578 578  580 580 580  581 581 581  584 584 584  584 584 584  586 586 586  0 0 0  0 0 0  0 0 0  0 0 0  589 589 589  595 595 595  600 600 600  606 606 606  607 607 607  608 608 608  609 609 609  610 610 610  610 610 610  608 608 608  0 0 0  597 597 597  595 595 595  594 594 594  595 595 595  594 594 594  0 0 0  0 0 0  0 0 0  0 0 0  0 0 0  638 638 638  643 643 643  644 644 644  645 645 645  646 646 646  648 648 648  650 650 650  651 651 651  653 653 653  654 654 654  655 655 655  657 657 657  658 658 658  659 659 659  661 661 661  661 661 661  663 663 663  663 663 663  664 664 664  665 665 665  665 665 665  665 665 665  666 666 666  666 666 666  666 666 666  667 667 667  668 668 668  668 668 668  669 669 669  670 670 670  671 671 671  672 672 672  672 672 672  673 673 673  674 674 674  674 674 674  675 675 675  675 675 675  675 675 675  675 675 675  675 675 675  675 675 675  676 676 676  676 676 676  677 677 677  678 678 678  678 678 678  679 679 679  680 680 680  681 681 681  683 683 683  684 684 684  685 685 685  687 687 687  689 689 689  689 689 689  690 690 690  691 691 691  690 690 690  692 692 692  692 692 692  692 692 692  693 693 693  693 693 693  694 694 694  695 695 695  695 695 695  697 697 697  697 697 697  698 698 698  700 700 700  701 701 701  701 701 701  703 703 703  704 704 704  704 704 704  706 706 706  707 707 707  707 707 707  709 709 709  710 710 710  711 711 711  712 712 712  712 712 712  714 714 714  714 714 714  715 715 715  716 716 716  717 717 717  717 717 717  718 718 718  718 718 718  717 717 717  718 718 718  719 719 719  720 720 720  722 722 722  723 723 723  724 724 724  725 725 725  725 725 725  725 725 725  725 725 725  724 724 724  724 724 724  722 722 722  720 720 720  719 719 719  716 716 716  715 715 715  712 712 712  710 710 710  708 708 708  706 706 706  706 706 706  704 704 704  703 703 703  702 702 702  702 702 702  702 702 702  702 702 702  700 700 700  701 701 701  700 700 700  699 699 699  699 699 699  699 699 699  700 700 700  700 700 700  699 699 699  700 700 700  699 699 699  699 699 699  699 699 699  698 698 698  697 697 697  697 697 697  696 696 696  696 696 696  694 694 694  693 693 693  693 693 693  692 692 692  692 692 692  691 691 691  689 689 689  688 688 688  685 685 685  683 683 683  683 683 683  682 682 682  0 0 0  0 0 0  0 0 0  0 0 0  0 0 0  0 0 0  0 0 0  0 0 0  0 0 0  0 0 0  0 0 0  0 0 0  705 705 705  712 712 712  715 715 715  715 715 715  709 709 709  705 705 705  702 702 702  700 700 700  698 698 698  695 695 695  694 694 694  690
0 0 0  0 0 0  0 0 0  0 0 0  0 0 0  0 0 0  0 0 0  0 0 0  0 0 0  0 0 0  0 0 0  0 0 0  0 0 0  0 0 0  0 0 0  0 0 0  0 0 0  0 0 0  0 0 0  0 0 0  0 0 0  0 0 0  0 0 0  0 0 0  0 0 0  0 0 0  0 0 0  0 0 0  0 0 0  0 0 0  0 0 0  0 0 0  0 0 0  0 0 0  0 0 0  0 0 0  0 0 0  0 0 0  0 0 0  0 0 0  0 0 0  0 0 0  0 0 0  0 0 0  0 0 0  0 0 0  0 0 0  0 0 0  0 0 0  0 0 0  0 0 0  0 0 0  0 0 0  0 0 0  0 0 0  0 0 0  0 0 0  0 0 0  0 0 0  0 0 0  0 0 0  0 0 0  0 0 0  0 0 0  0 0 0  0 0 0  0 0 0  0 0 0  0 0 0  0 0 0  0 0 0  0 0 0  0 0 0  0 0 0  0 0 0  0 0 0  0 0 0  0 0 0  0 0 0  0 0 0  0 0 0  0 0 0  0 0 0  0 0 0  0 0 0  0 0 0  0 0 0  0 0 0  0 0 0  0 0 0  0 0 0  0 0 0  0 0 0  0 0 0  0 0 0  0 0 0  0 0 0  0 0 0  0 0 0  0 0 0  0 0 0  0 0 0  0 0 0  0 0 0  0 0 0  0 0 0  0 0 0  0 0 0  0 0 0  0 0 0  0 0 0  0 0 0  0 0 0  0 0 0  0 0 0  0 0 0  0 0 0  0 0 0  0 0 0  0 0 0  0 0 0  0 0 0  0 0 0  0 0 0  0 0 0  0 0 0  0 0 0  0 0 0  0 0 0  0 0 0  0 0 0  0 0 0  0 0 0  0 0 0  0 0 0  0 0 0  0 0 0  0 0 0  0 0 0  0 0 0  0 0 0  0 0 0  0 0 0  0 0 0  0 0 0  0 0 0  0 0 0  0 0 0  0 0 0  0 0 0  0 0 0  0 0 0  0 0 0  0 0 0  0 0 0  0 0 0  0 0 0  0 0 0  0 0 0  0 0 0  0 0 0  0 0 0  0 0 0  0 0 0  0 0 0  0 0 0  0 0 0  0 0 0  571 571 571  571 571 571  575 575 575  577 577 577  578 578 578  578 578 578  577 577 577  578 578 578  578 578 578  579 579 579  580 580 580  580 580 580  582 582 582  584 584 584  585 585 585  587 587 587  590 590 590  0 0 0  0 0 0  0 0 0  0 0 0  0 0 0  0 0 0  0 0 0  607 607 607  607 607 607  608 608 608  608 608 608  609 609 609  611 611 611  609 609 609  602 602 602  0 0 0  0 0 0  0 0 0  596 596 596  0 0 0  0 0 0  0 0 0  0 0 0  0 0 0  0 0 0  639 639 639  643 643 643  644 644 644  645 645 645  646 646 646  648 648 648  649 649 649  650 650 650  652 652 652  654 654 654  655 655 655  657 657 657  658 658 658  659 659 659  660 660 660  660 660 660  662 662 662  662 662 662  663 663 663  664 664 664  664 664 664  664 664 664  665 665 665  665 665 665  665 665 665  666 666 666  667 667 667  668 668 668  669 669 669  669 669 669  671 671 671  671 671 671  672 672 672  673 673 673  673 673 673  674 674 674  675 675 675  675 675 675  674 674 674  675 675 675  675 675 675  675 675 675  675 675 675  676 676 676  676 676 676  677 677 677  678 678 678  679 679 679  680 680 680  681 681 681  682 682 682  684 684 684  685 685 685  687 687 687  688 688 688  688 688 688  689 689 689  690 690 690  689 689 689  691 691 691  691 691 691  691 691 691  692 692 692  693 693 693  694 694 694  694 694 694  695 695 695  696 696 696  697 697 697  698 698 698  700 700 700  702 702 702  703 703 703  704 704 704  705 705 705  705 705 705  707 707 707  707 707 707  707 707 707  708 708 708  709 709 709  710 710 710  711 711 711  712 712 712  713 713 713  713 713 713  714 714 714  715 715 715  716 716 716  716 716 716  717 717 717  717 717 717  716 716 716  717 717 717  718 718 718  719 719 719  720 720 720  722 722 722  723 723 723  724 724 724  725 725 725  725 725 725  725 725 725  724 724 724  724 724 724  723 723 723  720 720 720  720 720 720  716 716 716  715 715 715  712 712 712  710 710 710  708 708 708  706 706 706  706 706 706  704 704 704  702 702 702  702 702 702  701 701 701  701 701 701  701 701 701  700 700 700  700 700 700  699 699 699  699 699 699  699 699 699  699 699 699  699 699 699  699 699 699  699 699 699  699 699 699  698 698 698  698 698 698  698 698 698  697 697 697  697 697 697  697 697 697  695 695 695  696 696 696  694 694 694  693 693 693  693 693 693  692 692 692  692 692 692  692 692 692  691 691 691  690 690 690  687 687 687  685 685 685  684 684 684  685 685 685  687 687 687  691 691 691  693 693 693  0 0 0  0 0 0  0 0 0  0 0 0  654 654 654  0 0 0  0 0 0  0 0 0  0 0 0  0 0 0  707 707 707  710 710 710  709 709 709  704 704 704  702 702 702  698 698 698  697 697 697  695 695 695  693 693 693  692 692 692  690
0 0 0  0 0 0  0 0 0  0 0 0  0 0 0  0 0 0  0 0 0  0 0 0  0 0 0  0 0 0  0 0 0  0 0 0  0 0 0  0 0 0  0 0 0  0 0 0  0 0 0  0 0 0  0 0 0  0 0 0  0 0 0  0 0 0  0 0 0  0 0 0  0 0 0  0 0 0  0 0 0  0 0 0  0 0 0  0 0 0  0 0 0  0 0 0  0 0 0  0 0 0  0 0 0  0 0 0  0 0 0  0 0 0  0 0 0  0 0 0  0 0 0  0 0 0  0 0 0  0 0 0  0 0 0  0 0 0  0 0 0  0 0 0  0 0 0  0 0 0  0 0 0  0 0 0  0 0 0  0 0 0  0 0 0  0 0 0  0 0 0  0 0 0  0 0 0  0 0 0  0 0 0  0 0 0  0 0 0  0 0 0  0 0 0  0 0 0  0 0 0  0 0 0  0 0 0  0 0 0  0 0 0  0 0 0  0 0 0  0 0 0  0 0 0  0 0 0  0 0 0  0 0 0  0 0 0  0 0 0  0 0 0  0 0 0  0 0 0  0 0 0  0 0 0  0 0 0  0 0 0  0 0 0  0 0 0  0 0 0  0 0 0  0 0 0  0 0 0  0 0 0  0 0 0  0 0 0  0 0 0  0 0 0  0 0 0  0 0 0  0 0 0  0 0 0  0 0 0  0 0 0  0 0 0  0 0 0  0 0 0  0 0 0  0 0 0  0 0 0  0 0 0  0 0 0  0 0 0  0 0 0  0 0 0  0 0 0  0 0 0  0 0 0  0 0 0  0 0 0  0 0 0  0 0 0  0 0 0  0 0 0  0 0 0  0 0 0  0 0 0  0 0 0  0 0 0  0 0 0  0 0 0  0 0 0  0 0 0  0 0 0  0 0 0  0 0 0  0 0 0  0 0 0  0 0 0  0 0 0  0 0 0  0 0 0  0 0 0  0 0 0  0 0 0  0 0 0  0 0 0  0 0 0  0 0 0  0 0 0  0 0 0  0 0 0  0 0 0  0 0 0  0 0 0  0 0 0  0 0 0  0 0 0  0 0 0  0 0 0  0 0 0  0 0 0  0 0 0  0 0 0  574 574 574  577 577 577  576 576 576  579 579 579  576 576 576  576 576 576  577 577 577  578 578 578  579 579 579  579 579 579  579 579 579  580 580 580  580 580 580  580 580 580  581 581 581  582 582 582  583 583 583  586 586 586  588 588 588  591 591 591  595 595 595  602 602 602  0 0 0  0 0 0  0 0 0  0 0 0  0 0 0  0 0 0  0 0 0  0 0 0  608 608 608  609 609 609  610 610 610  612 612 612  612 612 612  0 0 0  0 0 0  0 0 0  0 0 0  0 0 0  0 0 0  0 0 0  0 0 0  0 0 0  0 0 0  0 0 0  640 640 640  642 642 642  644 644 644  646 646 646  647 647 647  648 648 648  649 649 649  650 650 650  652 652 652  653 653 653  654 654 654  656 656 656  657 657 657  658 658 658  660 660 660  660 660 660  661 661 661  662 662 662  662 662 662  663 663 663  664 664 664  664 664 664  664 664 664  665 665 665  665 665 665  666 666 666  667 667 667  668 668 668  669 669 669  669 669 669  670 670 670  671 671 671  672 672 672  673 673 673  673 673 673  673 673 673  674 674 674  674 674 674  674 674 674  674 674 674  674 674 674  674 674 674  675 675 675  675 675 675  675 675 675  676 676 676  677 677 677  678 678 678  680 680 680  682 682 682  684 684 684  686 686 686  686 686 686  687 687 687  688 688 688  687 687 687  689 689 689  689 689 689  688 688 688  690 690 690  691 691 691  691 691 691  692 692 692  692 692 692  693 693 693  693 693 693  694 694 694  695 695 695  696 696 696  698 698 698  701 701 701  704 704 704  705 705 705  707 707 707  707 707 707  706 706 706  707 707 707  707 707 707  707 707 707  708 708 708  709 709 709  709 709 709  710 710 710  711 711 711  712 712 712  713 713 713  713 713 713  715 715 715  715 715 715  715 715 715  716 716 716  716 716 716  716 716 716  716 716 716  718 718 718  720 720 720  723 723 723  728 728 728  728 728 728  727 727 727  722 722 722  723 723 723  724 724 724  725 725 725  725 725 725  724 724 724  722 722 722  721 721 721  717 717 717  715 715 715  713 713 713  710 710 710  709 709 709  706 706 706  706 706 706  704 704 704  702 702 702  702 702 702  701 701 701  701 701 701  701 701 701  699 699 699  700 700 700  699 699 699  698 698 698  698 698 698  698 698 698  698 698 698  698 698 698  698 698 698  698 698 698  698 698 698  697 697 697  697 697 697  697 697 697  697 697 697  696 696 696  695 695 695  696 696 696  694 694 694  693 693 693  693 693 693  693 693 693  693 693 693  692 692 692  691 691 691  691 691 691  688 688 688  687 687 687  687 687 687  687 687 687  689 689 689  692 692 692  694 694 694  0 0 0  0 0 0  0 0 0  0 0 0  0 0 0  0 0 0  0 0 0  0 0 0  0 0 0  700 700 700  704 704 704  706 706 706  705 705 705  702 702 702  700 700 700  697 697 697  697 697 697  694 694 694  692 692 692  691 691 691  689
0 0 0  0 0 0  0 0 0  0 0 0  0 0 0  0 0 0  0 0 0  0 0 0  0 0 0  0 0 0  0 0 0  0 0 0  0 0 0  0 0 0  0 0 0  0 0 0  0 0 0  0 0 0  0 0 0  0 0 0  0 0 0  0 0 0  0 0 0  0 0 0  0 0 0  0 0 0  0 0 0  0 0 0  0 0 0  0 0 0  0 0 0  0 0 0  0 0 0  0 0 0  0 0 0  0 0 0  0 0 0  0 0 0  0 0 0  0 0 0  0 0 0  0 0 0  0 0 0  0 0 0  0 0 0  0 0 0  0 0 0  0 0 0  0 0 0  0 0 0  0 0 0  0 0 0  0 0 0  0 0 0  0 0 0  0 0 0  0 0 0  0 0 0  0 0 0  0 0 0  0 0 0  0 0 0  0 0 0  0 0 0  0 0 0  0 0 0  0 0 0  0 0 0  0 0 0  0 0 0  0 0 0  0 0 0  0 0 0  0 0 0  0 0 0  0 0 0  0 0 0  0 0 0  0 0 0  0 0 0  0 0 0  0 0 0  0 0 0  0 0 0  0 0 0  0 0 0  0 0 0  0 0 0  0 0 0  0 0 0  0 0 0  0 0 0  0 0 0  0 0 0  0 0 0  0 0 0  0 0 0  0 0 0  0 0 0  0 0 0  0 0 0  0 0 0  0 0 0  0 0 0  0 0 0  0 0 0  0 0 0  0 0 0  0 0 0  0 0 0  0 0 0  0 0 0  0 0 0  0 0 0  0 0 0  0 0 0  0 0 0  0 0 0  0 0 0  0 0 0  0 0 0  0 0 0  0 0 0  0 0 0  0 0 0  0 0 0  0 0 0  0 0 0  0 0 0  0 0 0  0 0 0  0 0 0  0 0 0  0 0 0  0 0 0  0 0 0  0 0 0  0 0 0  0 0 0  0 0 0  0 0 0  0 0 0  0 0 0  0 0 0  0 0 0  0 0 0  0 0 0  0 0 0  0 0 0  0 0 0  0 0 0  0 0 0  0 0 0  0 0 0  0 0 0  0 0 0  0 0 0  0 0 0  0 0 0  0 0 0  0 0 0  0 0 0  0 0 0  0 0 0  580 580 580  581 581 581  580 580 580  580 580 580  580 580 580  579 579 579  580 580 580  579 579 579  579 579 579  580 580 580  580 580 580  581 581 581  582 582 582  581 581 581  583 583 583  583 583 583  583 583 583  584 584 584  585 585 585  588 588 588  589 589 589  0 0 0  603 603 603  0 0 0  0 0 0  0 0 0  0 0 0  0 0 0  0 0 0  0 0 0  0 0 0  609 609 609  0 0 0  0 0 0  0 0 0  0 0 0  0 0 0  0 0 0  0 0 0  0 0 0  0 0 0  0 0 0  643 643 643  643 643 643  642 642 642  643 643 643  643 643 643  642 642 642  644 644 644  646 646 646  646 646 646  648 648 648  649 649 649  650 650 650  651 651 651  652 652 652  654 654 654  656 656 656  656 656 656  658 658 658  659 659 659  659 659 659  660 660 660  661 661 661  661 661 661  662 662 662  663 663 663  663 663 663  664 664 664  664 664 664  665 665 665  666 666 666  667 667 667  668 668 668  668 668 668  669 669 669  670 670 670  671 671 671  671 671 671  672 672 672  673 673 673  673 673 673  674 674 674  674 674 674  674 674 674  674 674 674  674 674 674  674 674 674  674 674 674  674 674 674  675 675 675  674 674 674  675 675 675  676 676 676  678 678 678  680 680 680  683 683 683  684 684 684  685 685 685  686 686 686  686 686 686  686 686 686  688 688 688  688 688 688  688 688 688  690 690 690  690 690 690  691 691 691  692 692 692  692 692 692  693 693 693  693 693 693  693 693 693  694 694 694  696 696 696  0 0 0  0 0 0  705 705 705  707 707 707  708 708 708  708 708 708  707 707 707  708 708 708  707 707 707  707 707 707  707 707 707  708 708 708  709 709 709  710 710 710  710 710 710  712 712 712  712 712 712  713 713 713  714 714 714  715 715 715  714 714 714  716 716 716  716 716 716  715 715 715  716 716 716  717 717 717  719 719 719  723 723 723  728 728 728  727 727 727  727 727 727  722 722 722  723 723 723  724 724 724  724 724 724  724 724 724  723 723 723  721 721 721  720 720 720  717 717 717  716 716 716  713 713 713  710 710 710  709 709 709  707 707 707  706 706 706  704 704 704  702 702 702  702 702 702  701 701 701  701 701 701  701 701 701  699 699 699  699 699 699  698 698 698  698 698 698  698 698 698  698 698 698  698 698 698  698 698 698  697 697 697  698 698 698  697 697 697  697 697 697  697 697 697  696 696 696  697 697 697  697 697 697  696 696 696  696 696 696  695 695 695  694 694 694  693 693 693  693 693 693  693 693 693  693 693 693  691 691 691  691 691 691  689 689 689  688 688 688  688 688 688  688 688 688  690 690 690  692 692 692  694 694 694  0 0 0  0 0 0  0 0 0  0 0 0  0 0 0  0 0 0  0 0 0  0 0 0  0 0 0  697 697 697  699 699 699  700 700 700  699 699 699  699 699 699  698 698 698  696 696 696  697 697 697  695 695 695  693 693 693  691 691 691  689
0 0 0  0 0 0  0 0 0  0 0 0  0 0 0  0 0 0  0 0 0  0 0 0  0 0 0  0 0 0  0 0 0  0 0 0  0 0 0  0 0 0  0 0 0  0 0 0  0 0 0  0 0 0  0 0 0  0 0 0  0 0 0  0 0 0  0 0 0  0 0 0  0 0 0  0 0 0  0 0 0  0 0 0  0 0 0  0 0 0  0 0 0  0 0 0  0 0 0  0 0 0  0 0 0  0 0 0  0 0 0  0 0 0  0 0 0  0 0 0  0 0 0  0 0 0  0 0 0  0 0 0  0 0 0  0 0 0  0 0 0  0 0 0  0 0 0  0 0 0  0 0 0  0 0 0  0 0 0  0 0 0  0 0 0  0 0 0  0 0 0  0 0 0  0 0 0  0 0 0  0 0 0  0 0 0  0 0 0  0 0 0  0 0 0  0 0 0  0 0 0  0 0 0  0 0 0  0 0 0  0 0 0  0 0 0  0 0 0  0 0 0  0 0 0  0 0 0  0 0 0  0 0 0  0 0 0  0 0 0  0 0 0  0 0 0  0 0 0  0 0 0  0 0 0  0 0 0  0 0 0  0 0 0  0 0 0  0 0 0  0 0 0  0 0 0  0 0 0  0 0 0  0 0 0  0 0 0  0 0 0  0 0 0  0 0 0  0 0 0  0 0 0  0 0 0  0 0 0  0 0 0  0 0 0  0 0 0  0 0 0  0 0 0  0 0 0  0 0 0  0 0 0  0 0 0  0 0 0  0 0 0  0 0 0  0 0 0  0 0 0  0 0 0  0 0 0  0 0 0  0 0 0  0 0 0  0 0 0  0 0 0  0 0 0  0 0 0  0 0 0  0 0 0  0 0 0  0 0 0  0 0 0  0 0 0  0 0 0  0 0 0  0 0 0  0 0 0  0 0 0  0 0 0  0 0 0  0 0 0  0 0 0  0 0 0  0 0 0  0 0 0  0 0 0  0 0 0  0 0 0  0 0 0  0 0 0  0 0 0  0 0 0  0 0 0  0 0 0  0 0 0  0 0 0  0 0 0  0 0 0  0 0 0  0 0 0  0 0 0  0 0 0  0 0 0  0 0 0  0 0 0  0 0 0  583 583 583  582 582 582  581 581 581  582 582 582  581 581 581  582 582 582  581 581 581  581 581 581  581 581 581  581 581 581  582 582 582  582 582 582  582 582 582  583 583 583  583 583 583  582 582 582  582 582 582  583 583 583  585 585 585  588 588 588  596 596 596  602 602 602  0 0 0  0 0 0  0 0 0  0 0 0  0 0 0  0 0 0  0 0 0  0 0 0  0 0 0  0 0 0  0 0 0  0 0 0  0 0 0  0 0 0  0 0 0  0 0 0  0 0 0  0 0 0  0 0 0  642 642 642  642 642 642  641 641 641  642 642 642  641 641 641  642 642 642  644 644 644  645 645 645  646 646 646  648 648 648  648 648 648  649 649 649  651 651 651  652 652 652  654 654 654  655 655 655  656 656 656  657 657 657  659 659 659  658 658 658  660 660 660  660 660 660  660 660 660  661 661 661  662 662 662  663 663 663  663 663 663  664 664 664  665 665 665  666 666 666  667 667 667  667 667 667  668 668 668  669 669 669  670 670 670  670 670 670  671 671 671  672 672 672  672 672 672  672 672 672  673 673 673  674 674 674  673 673 673  673 673 673  673 673 673  673 673 673  674 674 674  673 673 673  674 674 674  673 673 673  673 673 673  675 675 675  676 676 676  678 678 678  681 681 681  682 682 682  682 682 682  683 683 683  684 684 684  685 685 685  686 686 686  687 687 687  688 688 688  689 689 689  690 690 690  690 690 690  691 691 691  691 691 691  692 692 692  692 692 692  692 692 692  694 694 694  696 696 696  0 0 0  0 0 0  707 707 707  709 709 709  709 709 709  710 710 710  708 708 708  708 708 708  707 707 707  707 707 707  707 707 707  708 708 708  709 709 709  710 710 710  710 710 710  711 711 711  712 712 712  712 712 712  713 713 713  714 714 714  714 714 714  715 715 715  715 715 715  714 714 714  716 716 716  717 717 717  719 719 719  722 722 722  727 727 727  727 727 727  726 726 726  720 720 720  721 721 721  722 722 722  722 722 722  722 722 722  721 721 721  719 719 719  719 719 719  716 716 716  715 715 715  713 713 713  711 711 711  709 709 709  707 707 707  706 706 706  704 704 704  702 702 702  702 702 702  701 701 701  701 701 701  700 700 700  699 699 699  699 699 699  698 698 698  698 698 698  698 698 698  697 697 697  698 698 698  697 697 697  696 696 696  697 697 697  696 696 696  696 696 696  696 696 696  696 696 696  696 696 696  696 696 696  696 696 696  696 696 696  695 695 695  694 694 694  694 694 694  692 692 692  692 692 692  691 691 691  690 690 690  690 690 690  688 688 688  688 688 688  688 688 688  686 686 686  687 687 687  687 687 687  687 687 687  0 0 0  0 0 0  0 0 0  0 0 0  0 0 0  0 0 0  0 0 0  0 0 0  694 694 694  698 698 698  698 698 698  700 700 700  699 699 699  699 699 699  698 698 698  696 696 696  697 697 697  695 695 695  693 693 693  692 692 692  690
0 0 0  0 0 0  0 0 0  0 0 0  0 0 0  0 0 0  0 0 0  0 0 0  0 0 0  0 0 0  0 0 0  0 0 0  0 0 0  0 0 0  0 0 0  0 0 0  0 0 0  0 0 0  0 0 0  0 0 0  0 0 0  0 0 0  0 0 0  0 0 0  0 0 0  0 0 0  0 0 0  0 0 0  0 0 0  0 0 0  0 0 0  0 0 0  0 0 0  0 0 0  0 0 0  0 0 0  0 0 0  0 0 0  0 0 0  0 0 0  0 0 0  0 0 0  0 0 0  0 0 0  0 0 0  0 0 0  0 0 0  0 0 0  0 0 0  0 0 0  0 0 0  0 0 0  0 0 0  0 0 0  0 0 0  0 0 0  0 0 0  0 0 0  0 0 0  0 0 0  0 0 0  0 0 0  0 0 0  0 0 0  0 0 0  0 0 0  0 0 0  0 0 0  0 0 0  0 0 0  0 0 0  0 0 0  0 0 0  0 0 0  0 0 0  0 0 0  0 0 0  0 0 0  0 0 0  0 0 0  0 0 0  0 0 0  0 0 0  0 0 0  0 0 0  0 0 0  0 0 0  0 0 0  0 0 0  0 0 0  0 0 0  0 0 0  0 0 0  0 0 0  0 0 0  0 0 0  0 0 0  0 0 0  0 0 0  0 0 0  0 0 0  0 0 0  0 0 0  0 0 0  0 0 0  0 0 0  0 0 0  0 0 0  0 0 0  0 0 0  0 0 0  0 0 0  0 0 0  0 0 0  0 0 0  0 0 0  0 0 0  0 0 0  0 0 0  0 0 0  0 0 0  0 0 0  0 0 0  0 0 0  0 0 0  0 0 0  0 0 0  0 0 0  0 0 0  0 0 0  0 0 0  0 0 0  0 0 0  0 0 0  0 0 0  0 0 0  0 0 0  0 0 0  0 0 0  0 0 0  0 0 0  0 0 0  0 0 0  0 0 0  0 0 0  0 0 0  0 0 0  0 0 0  0 0 0  0 0 0  0 0 0  0 0 0  0 0 0  0 0 0  0 0 0  0 0 0  0 0 0  0 0 0  0 0 0  0 0 0  0 0 0  0 0 0  0 0 0  0 0 0  0 0 0  0 0 0  0 0 0  582 582 582  583 583 583  582 582 582  583 583 583  582 582 582  582 582 582  582 582 582  582 582 582  582 582 582  583 583 583  583 583 583  584 584 584  584 584 584  584 584 584  585 585 585  586 586 586  588 588 588  591 591 591  595 595 595  599 599 599  0 0 0  0 0 0  0 0 0  0 0 0  607 607 607  607 607 607  609 609 609  609 609 609  0 0 0  0 0 0  0 0 0  634 634 634  0 0 0  0 0 0  0 0 0  0 0 0  0 0 0  0 0 0  0 0 0  635 635 635  638 638 638  639 639 639  641 641 641  642 642 642  642 642 642  644 644 644  645 645 645  646 646 646  647 647 647  648 648 648  649 649 649  651 651 651  652 652 652  653 653 653  655 655 655  656 656 656  657 657 657  658 658 658  658 658 658  660 660 660  660 660 660  660 660 660  662 662 662  662 662 662  662 662 662  663 663 663  664 664 664  665 665 665  666 666 666  666 666 666  667 667 667  668 668 668  668 668 668  670 670 670  670 670 670  671 671 671  671 671 671  672 672 672  672 672 672  673 673 673  673 673 673  673 673 673  673 673 673  673 673 673  673 673 673  673 673 673  672 672 672  673 673 673  673 673 673  672 672 672  673 673 673  674 674 674  674 674 674  676 676 676  677 677 677  678 678 678  680 680 680  682 682 682  683 683 683  685 685 685  686 686 686  687 687 687  688 688 688  688 688 688  689 689 689  690 690 690  690 690 690  691 691 691  691 691 691  692 692 692  694 694 694  697 697 697  700 700 700  0 0 0  707 707 707  709 709 709  709 709 709  709 709 709  708 708 708  708 708 708  708 708 708  707 707 707  707 707 707  708 708 708  709 709 709  709 709 709  710 710 710  711 711 711  711 711 711  711 711 711  713 713 713  713 713 713  713 713 713  714 714 714  714 714 714  714 714 714  715 715 715  716 716 716  718 718 718  719 719 719  720 720 720  720 720 720  720 720 720  719 719 719  720 720 720  720 720 720  719 719 719  719 719 719  718 718 718  718 718 718  718 718 718  716 716 716  715 715 715  713 713 713  711 711 711  710 710 710  707 707 707  706 706 706  704 704 704  702 702 702  701 701 701  700 700 700  700 700 700  700 700 700  698 698 698  698 698 698  698 698 698  698 698 698  698 698 698  697 697 697  697 697 697  697 697 697  696 696 696  696 696 696  695 695 695  696 696 696  695 695 695  695 695 695  695 695 695  695 695 695  695 695 695  695 695 695  695 695 695  693 693 693  693 693 693  691 691 691  691 691 691  690 690 690  688 688 688  688 688 688  686 686 686  687 687 687  686 686 686  685 685 685  685 685 685  684 684 684  683 683 683  682 682 682  683 683 683  685 685 685  688 688 688  689 689 689  692 692 692  694 694 694  693 693 693  696 696 696  696 696 696  697 697 697  698 698 698  698 698 698  698 698 698  698 698 698  696 696 696  697 697 697  695 695 695  693 693 693  691 691 691  690
0 0 0  0 0 0  0 0 0  0 0 0  0 0 0  0 0 0  0 0 0  0 0 0  0 0 0  0 0 0  0 0 0  0 0 0  0 0 0  0 0 0  0 0 0  0 0 0  0 0 0  0 0 0  0 0 0  0 0 0  0 0 0  0 0 0  0 0 0  0 0 0  0 0 0  0 0 0  0 0 0  0 0 0  0 0 0  0 0 0  0 0 0  0 0 0  0 0 0  0 0 0  0 0 0  0 0 0  0 0 0  0 0 0  0 0 0  0 0 0  0 0 0  0 0 0  0 0 0  0 0 0  0 0 0  0 0 0  0 0 0  0 0 0  0 0 0  0 0 0  0 0 0  0 0 0  0 0 0  0 0 0  0 0 0  0 0 0  0 0 0  0 0 0  0 0 0  0 0 0  0 0 0  0 0 0  0 0 0  0 0 0  0 0 0  0 0 0  0 0 0  0 0 0  0 0 0  0 0 0  0 0 0  0 0 0  0 0 0  0 0 0  0 0 0  0 0 0  0 0 0  0 0 0  0 0 0  0 0 0  0 0 0  0 0 0  0 0 0  0 0 0  0 0 0  0 0 0  0 0 0  0 0 0  0 0 0  0 0 0  0 0 0  0 0 0  0 0 0  0 0 0  0 0 0  0 0 0  0 0 0  0 0 0  0 0 0  0 0 0  0 0 0  0 0 0  0 0 0  0 0 0  0 0 0  0 0 0  0 0 0  0 0 0  0 0 0  0 0 0  0 0 0  0 0 0  0 0 0  0 0 0  0 0 0  0 0 0  0 0 0  0 0 0  0 0 0  0 0 0  0 0 0  0 0 0  0 0 0  0 0 0  0 0 0  0 0 0  0 0 0  0 0 0  0 0 0  0 0 0  0 0 0  0 0 0  0 0 0  0 0 0  0 0 0  0 0 0  0 0 0  0 0 0  0 0 0  0 0 0  0 0 0  0 0 0  0 0 0  0 0 0  0 0 0  0 0 0  0 0 0  0 0 0  0 0 0  0 0 0  0 0 0  0 0 0  0 0 0  0 0 0  0 0 0  0 0 0  0 0 0  0 0 0  0 0 0  0 0 0  0 0 0  0 0 0  0 0 0  0 0 0  0 0 0  0 0 0  0 0 0  0 0 0  581 581 581  581 581 581  582 582 582  582 582 582  582 582 582  583 583 583  583 583 583  583 583 583  584 584 584  584 584 584  585 585 585  586 586 586  586 586 586  587 587 587  588 588 588  590 590 590  592 592 592  596 596 596  598 598 598  601 601 601  0 0 0  0 0 0  603 603 603  606 606 606  608 608 608  610 610 610  612 612 612  615 615 615  0 0 0  0 0 0  0 0 0  0 0 0  0 0 0  0 0 0  0 0 0  0 0 0  0 0 0  628 628 628  632 632 632  635 635 635  637 637 637  640 640 640  641 641 641  642 642 642  644 644 644  645 645 645  646 646 646  647 647 647  648 648 648  649 649 649  651 651 651  652 652 652  653 653 653  654 654 654  655 655 655  657 657 657  658 658 658  658 658 658  659 659 659  660 660 660  660 660 660  662 662 662  662 662 662  662 662 662  663 663 663  664 664 664  664 664 664  665 665 665  666 666 666  667 667 667  668 668 668  668 668 668  670 670 670  670 670 670  670 670 670  671 671 671  672 672 672  671 671 671  672 672 672  672 672 672  672 672 672  672 672 672  672 672 672  672 672 672  673 673 673  672 672 672  673 673 673  672 672 672  672 672 672  673 673 673  674 674 674  674 674 674  676 676 676  677 677 677  678 678 678  679 679 679  681 681 681  682 682 682  684 684 684  684 684 684  686 686 686  687 687 687  687 687 687  688 688 688  688 688 688  688 688 688  690 690 690  691 691 691  693 693 693  695 695 695  699 699 699  703 703 703  707 707 707  0 0 0  0 0 0  708 708 708  708 708 708  707 707 707  708 708 708  707 707 707  707 707 707  707 707 707  708 708 708  708 708 708  709 709 709  709 709 709  710 710 710  710 710 710  710 710 710  712 712 712  712 712 712  712 712 712  713 713 713  713 713 713  714 714 714  715 715 715  716 716 716  719 719 719  721 721 721  722 722 722  721 721 721  719 719 719  715 715 715  717 717 717  717 717 717  717 717 717  717 717 717  717 717 717  717 717 717  717 717 717  716 716 716  716 716 716  714 714 714  712 712 712  710 710 710  708 708 708  707 707 707  704 704 704  702 702 702  700 700 700  699 699 699  699 699 699  699 699 699  698 698 698  698 698 698  697 697 697  697 697 697  697 697 697  696 696 696  697 697 697  696 696 696  696 696 696  696 696 696  695 695 695  696 696 696  695 695 695  694 694 694  695 695 695  694 694 694  694 694 694  694 694 694  694 694 694  693 693 693  693 693 693  690 690 690  690 690 690  688 688 688  686 686 686  686 686 686  685 685 685  686 686 686  685 685 685  684 684 684  685 685 685  685 685 685  684 684 684  684 684 684  681 681 681  680 680 680  680 680 680  680 680 680  682 682 682  684 684 684  686 686 686  691 691 691  692 692 692  693 693 693  696 696 696  697 697 697  697 697 697  697 697 697  696 696 696  697 697 697  694 694 694  693 693 693  692 692 692  690
0 0 0  0 0 0  0 0 0  0 0 0  0 0 0  0 0 0  0 0 0  0 0 0  0 0 0  0 0 0  0 0 0  0 0 0  0 0 0  0 0 0  0 0 0  0 0 0  0 0 0  0 0 0  0 0 0  0 0 0  0 0 0  0 0 0  0 0 0  0 0 0  0 0 0  0 0 0  0 0 0  0 0 0  0 0 0  0 0 0  0 0 0  0 0 0  0 0 0  0 0 0  0 0 0  0 0 0  0 0 0  0 0 0  0 0 0  0 0 0  0 0 0  0 0 0  0 0 0  0 0 0  0 0 0  0 0 0  0 0 0  0 0 0  0 0 0  0 0 0  0 0 0  0 0 0  0 0 0  0 0 0  0 0 0  0 0 0  0 0 0  0 0 0  0 0 0  0 0 0  0 0 0  0 0 0  0 0 0  0 0 0  0 0 0  0 0 0  0 0 0  0 0 0  0 0 0  0 0 0  0 0 0  0 0 0  0 0 0  0 0 0  0 0 0  0 0 0  0 0 0  0 0 0  0 0 0  0 0 0  0 0 0  0 0 0  0 0 0  0 0 0  0 0 0  0 0 0  0 0 0  0 0 0  0 0 0  0 0 0  0 0 0  0 0 0  0 0 0  0 0 0  0 0 0  0 0 0  0 0 0  0 0 0  0 0 0  0 0 0  0 0 0  0 0 0  0 0 0  0 0 0  0 0 0  0 0 0  0 0 0  0 0 0  0 0 0  0 0 0  0 0 0  0 0 0  0 0 0  0 0 0  0 0 0  0 0 0  0 0 0  0 0 0  0 0 0  0 0 0  0 0 0  0 0 0  0 0 0  0 0 0  0 0 0  0 0 0  0 0 0  0 0 0  0 0 0  0 0 0  0 0 0  0 0 0  0 0 0  0 0 0  0 0 0  0 0 0  0 0 0  0 0 0  0 0 0  0 0 0  0 0 0  0 0 0  0 0 0  0 0 0  0 0 0  0 0 0  0 0 0  0 0 0  0 0 0  0 0 0  0 0 0  0 0 0  0 0 0  0 0 0  0 0 0  0 0 0  0 0 0  0 0 0  0 0 0  0 0 0  0 0 0  0 0 0  0 0 0  0 0 0  0 0 0  0 0 0  0 0 0  0 0 0  0 0 0  578 578 578  579 579 579  580 580 580  580 580 580  583 583 583  584 584 584  584 584 584  585 585 585  585 585 585  586 586 586  587 587 587  588 588 588  589 589 589  591 591 591  592 592 592  593 593 593  597 597 597  598 598 598  600 600 600  601 601 601  603 603 603  604 604 604  606 606 606  608 608 608  610 610 610  614 614 614  617 617 617  0 0 0  0 0 0  0 0 0  0 0 0  0 0 0  633 633 633  631 631 631  633 633 633  629 629 629  628 628 628  633 633 633  635 635 635  638 638 638  640 640 640  641 641 641  641 641 641  643 643 643  644 644 644  645 645 645  647 647 647  648 648 648  649 649 649  651 651 651  651 651 651  653 653 653  654 654 654  655 655 655  656 656 656  657 657 657  658 658 658  659 659 659  660 660 660  660 660 660  662 662 662  662 662 662  662 662 662  663 663 663  663 663 663  664 664 664  665 665 665  666 666 666  667 667 667  667 667 667  668 668 668  669 669 669  670 670 670  670 670 670  671 671 671  671 671 671  671 671 671  672 672 672  672 672 672  672 672 672  672 672 672  672 672 672  672 672 672  672 672 672  671 671 671  672 672 672  672 672 672  671 671 671  672 672 672  673 673 673  674 674 674  675 675 675  676 676 676  677 677 677  679 679 679  680 680 680  681 681 681  682 682 682  683 683 683  684 684 684  686 686 686  686 686 686  687 687 687  687 687 687  688 688 688  689 689 689  691 691 691  692 692 692  695 695 695  698 698 698  700 700 700  702 702 702  703 703 703  702 702 702  704 704 704  705 705 705  706 706 706  707 707 707  707 707 707  707 707 707  707 707 707  708 708 708  708 708 708  709 709 709  708 708 708  710 710 710  710 710 710  709 709 709  711 711 711  711 711 711  712 712 712  712 712 712  713 713 713  714 714 714  715 715 715  715 715 715  718 718 718  720 720 720  720 720 720  718 718 718  715 715 715  712 712 712  713 713 713  714 714 714  714 714 714  715 715 715  715 715 715  716 716 716  717 717 717  716 716 716  716 716 716  714 714 714  712 712 712  711 711 711  708 708 708  708 708 708  704 704 704  703 703 703  701 701 701  699 699 699  699 699 699  699 699 699  698 698 698  697 697 697  697 697 697  697 697 697  697 697 697  696 696 696  697 697 697  696 696 696  695 695 695  696 696 696  695 695 695  696 696 696  695 695 695  695 695 695  695 695 695  695 695 695  694 694 694  694 694 694  693 693 693  692 692 692  692 692 692  689 689 689  689 689 689  688 688 688  686 686 686  686 686 686  685 685 685  686 686 686  687 687 687  686 686 686  687 687 687  688 688 688  686 686 686  687 687 687  0 0 0  683 683 683  682 682 682  682 682 682  677 677 677  0 0 0  0 0 0  0 0 0  689 689 689  0 0 0  0 0 0  691 691 691  696 696 696  698 698 698  698 698 698  700 700 700  698 698 698  696 696 696  695 695 695  692
0 0 0  0 0 0  0 0 0  0 0 0  0 0 0  0 0 0  0 0 0  0 0 0  0 0 0  0 0 0  0 0 0  0 0 0  0 0 0  0 0 0  0 0 0  0 0 0  0 0 0  0 0 0  0 0 0  0 0 0  0 0 0  0 0 0  0 0 0  0 0 0  0 0 0  0 0 0  0 0 0  0 0 0  0 0 0  0 0 0  0 0 0  0 0 0  0 0 0  0 0 0  0 0 0  0 0 0  0 0 0  0 0 0  0 0 0  0 0 0  0 0 0  0 0 0  0 0 0  0 0 0  0 0 0  0 0 0  0 0 0  0 0 0  0 0 0  0 0 0  0 0 0  0 0 0  0 0 0  0 0 0  0 0 0  0 0 0  0 0 0  0 0 0  0 0 0  0 0 0  0 0 0  0 0 0  0 0 0  0 0 0  0 0 0  0 0 0  0 0 0  0 0 0  0 0 0  0 0 0  0 0 0  0 0 0  0 0 0  0 0 0  0 0 0  0 0 0  0 0 0  0 0 0  0 0 0  0 0 0  0 0 0  0 0 0  0 0 0  0 0 0  0 0 0  0 0 0  0 0 0  0 0 0  0 0 0  0 0 0  0 0 0  0 0 0  0 0 0  0 0 0  0 0 0  0 0 0  0 0 0  0 0 0  0 0 0  0 0 0  0 0 0  0 0 0  0 0 0  0 0 0  0 0 0  0 0 0  0 0 0  0 0 0  0 0 0  0 0 0  0 0 0  0 0 0  0 0 0  0 0 0  0 0 0  0 0 0  0 0 0  0 0 0  0 0 0  0 0 0  0 0 0  0 0 0  0 0 0  0 0 0  0 0 0  0 0 0  0 0 0  0 0 0  0 0 0  0 0 0  0 0 0  0 0 0  0 0 0  0 0 0  0 0 0  0 0 0  0 0 0  0 0 0  0 0 0  0 0 0  0 0 0  0 0 0  0 0 0  0 0 0  0 0 0  0 0 0  0 0 0  0 0 0  0 0 0  0 0 0  0 0 0  0 0 0  0 0 0  0 0 0  0 0 0  0 0 0  0 0 0  0 0 0  0 0 0  0 0 0  0 0 0  0 0 0  0 0 0  0 0 0  0 0 0  0 0 0  0 0 0  0 0 0  0 0 0  577 577 577  576 576 576  580 580 580  582 582 582  584 584 584  585 585 585  585 585 585  586 586 586  586 586 586  587 587 587  587 587 587  588 588 588  589 589 589  591 591 591  593 593 593  594 594 594  597 597 597  598 598 598  600 600 600  601 601 601  603 603 603  604 604 604  607 607 607  608 608 608  611 611 611  616 616 616  619 619 619  0 0 0  0 0 0  0 0 0  0 0 0  0 0 0  633 633 633  631 631 631  633 633 633  630 630 630  629 629 629  633 633 633  636 636 636  638 638 638  640 640 640  641 641 641  641 641 641  643 643 643  644 644 644  645 645 645  647 647 647  648 648 648  649 649 649  650 650 650  651 651 651  652 652 652  654 654 654  654 654 654  656 656 656  657 657 657  657 657 657  659 659 659  659 659 659  659 659 659  661 661 661  661 661 661  661 661 661  662 662 662  663 663 663  664 664 664  665 665 665  666 666 666  666 666 666  667 667 667  667 667 667  669 669 669  669 669 669  669 669 669  670 670 670  671 671 671  670 670 670  671 671 671  671 671 671  671 671 671  671 671 671  671 671 671  672 672 672  672 672 672  671 671 671  672 672 672  671 671 671  671 671 671  672 672 672  672 672 672  673 673 673  675 675 675  675 675 675  677 677 677  678 678 678  679 679 679  680 680 680  682 682 682  682 682 682  684 684 684  685 685 685  685 685 685  686 686 686  687 687 687  688 688 688  690 690 690  692 692 692  693 693 693  695 695 695  697 697 697  698 698 698  701 701 701  702 702 702  701 701 701  703 703 703  704 704 704  705 705 705  706 706 706  705 705 705  705 705 705  705 705 705  706 706 706  707 707 707  708 708 708  708 708 708  709 709 709  709 709 709  708 708 708  710 710 710  710 710 710  712 712 712  712 712 712  713 713 713  715 715 715  716 716 716  717 717 717  719 719 719  720 720 720  720 720 720  717 717 717  714 714 714  711 711 711  713 713 713  713 713 713  714 714 714  715 715 715  715 715 715  716 716 716  717 717 717  716 716 716  717 717 717  715 715 715  714 714 714  713 713 713  710 710 710  709 709 709  706 706 706  704 704 704  702 702 702  700 700 700  700 700 700  699 699 699  698 698 698  697 697 697  697 697 697  697 697 697  697 697 697  696 696 696  696 696 696  695 695 695  695 695 695  695 695 695  695 695 695  696 696 696  696 696 696  695 695 695  696 696 696  695 695 695  694 694 694  694 694 694  693 693 693  692 692 692  691 691 691  689 689 689  689 689 689  687 687 687  685 685 685  685 685 685  683 683 683  683 683 683  681 681 681  681 681 681  681 681 681  683 683 683  683 683 683  686 686 686  683 683 683  684 684 684  682 682 682  680 680 680  0 0 0  0 0 0  0 0 0  0 0 0  0 0 0  0 0 0  679 679 679  0 0 0  693 693 693  697 697 697  700 700 700  703 703 703  703 703 703  699 699 699  698 698 698  694
0 0 0  0 0 0  0 0 0  0 0 0  0 0 0  0 0 0  0 0 0  0 0 0  0 0 0  0 0 0  0 0 0  0 0 0  0 0 0  0 0 0  0 0 0  0 0 0  0 0 0  0 0 0  0 0 0  0 0 0  0 0 0  0 0 0  0 0 0  0 0 0  0 0 0  0 0 0  0 0 0  0 0 0  0 0 0  0 0 0  0 0 0  0 0 0  0 0 0  0 0 0  0 0 0  0 0 0  0 0 0  0 0 0  0 0 0  0 0 0  0 0 0  0 0 0  0 0 0  0 0 0  0 0 0  0 0 0  0 0 0  0 0 0  0 0 0  0 0 0  0 0 0  0 0 0  0 0 0  0 0 0  0 0 0  0 0 0  0 0 0  0 0 0  0 0 0  0 0 0  0 0 0  0 0 0  0 0 0  0 0 0  0 0 0  0 0 0  0 0 0  0 0 0  0 0 0  0 0 0  0 0 0  0 0 0  0 0 0  0 0 0  0 0 0  0 0 0  0 0 0  0 0 0  0 0 0  0 0 0  0 0 0  0 0 0  0 0 0  0 0 0  0 0 0  0 0 0  0 0 0  0 0 0  0 0 0  0 0 0  0 0 0  0 0 0  0 0 0  0 0 0  0 0 0  0 0 0  0 0 0  0 0 0  0 0 0  0 0 0  0 0 0  0 0 0  0 0 0  0 0 0  0 0 0  0 0 0  0 0 0  0 0 0  0 0 0  0 0 0  0 0 0  0 0 0  0 0 0  0 0 0  0 0 0  0 0 0  0 0 0  0 0 0  0 0 0  0 0 0  0 0 0  0 0 0  0 0 0  0 0 0  0 0 0  0 0 0  0 0 0  0 0 0  0 0 0  0 0 0  0 0 0  0 0 0  0 0 0  0 0 0  0 0 0  0 0 0  0 0 0  0 0 0  0 0 0  0 0 0  0 0 0  0 0 0  0 0 0  0 0 0  0 0 0  0 0 0  0 0 0  0 0 0  0 0 0  0 0 0  0 0 0  0 0 0  0 0 0  0 0 0  0 0 0  0 0 0  0 0 0  0 0 0  0 0 0  0 0 0  0 0 0  0 0 0  0 0 0  0 0 0  0 0 0  0 0 0  0 0 0  0 0 0  0 0 0  0 0 0  0 0 0  583 583 583  584 584 584  586 586 586  586 586 586  586 586 586  586 586 586  586 586 586  587 587 587  588 588 588  588 588 588  589 589 589  591 591 591  593 593 593  594 594 594  597 597 597  599 599 599  601 601 601  602 602 602  605 605 605  606 606 606  608 608 608  609 609 609  611 611 611  615 615 615  618 618 618  0 0 0  0 0 0  0 0 0  0 0 0  0 0 0  0 0 0  0 0 0  0 0 0  0 0 0  631 631 631  635 635 635  637 637 637  638 638 638  639 639 639  640 640 640  641 641 641  643 643 643  644 644 644  645 645 645  647 647 647  648 648 648  648 648 648  650 650 650  651 651 651  652 652 652  653 653 653  654 654 654  656 656 656  657 657 657  657 657 657  658 658 658  659 659 659  658 658 658  660 660 660  661 661 661  661 661 661  662 662 662  663 663 663  664 664 664  664 664 664  665 665 665  666 666 666  666 666 666  667 667 667  668 668 668  668 668 668  668 668 668  669 669 669  669 669 669  0 0 0  670 670 670  670 670 670  671 671 671  670 670 670  670 670 670  671 671 671  671 671 671  670 670 670  671 671 671  671 671 671  670 670 670  671 671 671  672 672 672  673 673 673  674 674 674  675 675 675  676 676 676  677 677 677  678 678 678  680 680 680  681 681 681  682 682 682  683 683 683  684 684 684  685 685 685  686 686 686  687 687 687  688 688 688  690 690 690  691 691 691  692 692 692  694 694 694  695 695 695  696 696 696  699 699 699  701 701 701  701 701 701  703 703 703  703 703 703  704 704 704  705 705 705  705 705 705  705 705 705  705 705 705  705 705 705  707 707 707  708 708 708  707 707 707  708 708 708  708 708 708  708 708 708  710 710 710  710 710 710  712 712 712  712 712 712  714 714 714  715 715 715  717 717 717  717 717 717  719 719 719  723 723 723  721 721 721  718 718 718  710 710 710  709 709 709  712 712 712  713 713 713  714 714 714  715 715 715  715 715 715  716 716 716  716 716 716  716 716 716  717 717 717  715 715 715  714 714 714  713 713 713  711 711 711  710 710 710  707 707 707  705 705 705  704 704 704  702 702 702  701 701 701  700 700 700  698 698 698  698 698 698  697 697 697  697 697 697  697 697 697  695 695 695  696 696 696  695 695 695  694 694 694  695 695 695  695 695 695  695 695 695  696 696 696  695 695 695  696 696 696  696 696 696  696 696 696  696 696 696  695 695 695  693 693 693  692 692 692  689 689 689  689 689 689  686 686 686  684 684 684  682 682 682  681 681 681  680 680 680  678 678 678  678 678 678  678 678 678  680 680 680  681 681 681  684 684 684  683 683 683  687 687 687  690 690 690  691 691 691  0 0 0  0 0 0  0 0 0  0 0 0  0 0 0  0 0 0  0 0 0  0 0 0  0 0 0  697 697 697  699 699 699  701 701 701  699 699 699  696 696 696  696 696 696  694
0 0 0  0 0 0  0 0 0  0 0 0  0 0 0  0 0 0  0 0 0  0 0 0  0 0 0  0 0 0  0 0 0  0 0 0  0 0 0  0 0 0  0 0 0  0 0 0  0 0 0  0 0 0  0 0 0  0 0 0  0 0 0  0 0 0  0 0 0  0 0 0  0 0 0  0 0 0  0 0 0  0 0 0  0 0 0  0 0 0  0 0 0  0 0 0  0 0 0  0 0 0  0 0 0  0 0 0  0 0 0  0 0 0  0 0 0  0 0 0  0 0 0  0 0 0  0 0 0  0 0 0  0 0 0  0 0 0  0 0 0  0 0 0  0 0 0  0 0 0  0 0 0  0 0 0  0 0 0  0 0 0  0 0 0  0 0 0  0 0 0  0 0 0  0 0 0  0 0 0  0 0 0  0 0 0  0 0 0  0 0 0  0 0 0  0 0 0  0 0 0  0 0 0  0 0 0  0 0 0  0 0 0  0 0 0  0 0 0  0 0 0  0 0 0  0 0 0  0 0 0  0 0 0  0 0 0  0 0 0  0 0 0  0 0 0  0 0 0  0 0 0  0 0 0  0 0 0  0 0 0  0 0 0  0 0 0  0 0 0  0 0 0  0 0 0  0 0 0  0 0 0  0 0 0  0 0 0  0 0 0  0 0 0  0 0 0  0 0 0  0 0 0  0 0 0  0 0 0  0 0 0  0 0 0  0 0 0  0 0 0  0 0 0  0 0 0  0 0 0  0 0 0  0 0 0  0 0 0  0 0 0  0 0 0  0 0 0  0 0 0  0 0 0  0 0 0  0 0 0  0 0 0  0 0 0  0 0 0  0 0 0  0 0 0  0 0 0  0 0 0  0 0 0  0 0 0  0 0 0  0 0 0  0 0 0  0 0 0  0 0 0  0 0 0  0 0 0  0 0 0  0 0 0  0 0 0  0 0 0  0 0 0  0 0 0  0 0 0  0 0 0  0 0 0  0 0 0  0 0 0  0 0 0  0 0 0  0 0 0  0 0 0  0 0 0  0 0 0  0 0 0  0 0 0  0 0 0  0 0 0  0 0 0  0 0 0  0 0 0  0 0 0  0 0 0  0 0 0  0 0 0  0 0 0  0 0 0  0 0 0  0 0 0  0 0 0  0 0 0  0 0 0  587 587 587  586 586 586  587 587 587  586 586 586  586 586 586  587 587 587  0 0 0  587 587 587  587 587 587  0 0 0  589 589 589  592 592 592  593 593 593  594 594 594  598 598 598  599 599 599  602 602 602  604 604 604  608 608 608  608 608 608  610 610 610  610 610 610  611 611 611  614 614 614  614 614 614  0 0 0  0 0 0  0 0 0  0 0 0  0 0 0  0 0 0  0 0 0  0 0 0  0 0 0  632 632 632  634 634 634  635 635 635  636 636 636  638 638 638  640 640 640  641 641 641  642 642 642  644 644 644  645 645 645  647 647 647  647 647 647  648 648 648  650 650 650  650 650 650  652 652 652  653 653 653  654 654 654  655 655 655  656 656 656  656 656 656  657 657 657  658 658 658  658 658 658  659 659 659  660 660 660  661 661 661  662 662 662  662 662 662  663 663 663  664 664 664  665 665 665  666 666 666  666 666 666  666 666 666  667 667 667  668 668 668  667 667 667  668 668 668  668 668 668  668 668 668  669 669 669  669 669 669  670 670 670  670 670 670  669 669 669  670 670 670  670 670 670  669 669 669  670 670 670  670 670 670  670 670 670  671 671 671  672 672 672  672 672 672  674 674 674  674 674 674  675 675 675  677 677 677  678 678 678  679 679 679  680 680 680  681 681 681  682 682 682  683 683 683  684 684 684  686 686 686  687 687 687  688 688 688  689 689 689  691 691 691  692 692 692  694 694 694  696 696 696  697 697 697  700 700 700  702 702 702  702 702 702  704 704 704  706 706 706  707 707 707  708 708 708  706 706 706  705 705 705  705 705 705  705 705 705  707 707 707  707 707 707  707 707 707  707 707 707  708 708 708  708 708 708  709 709 709  710 710 710  711 711 711  712 712 712  714 714 714  716 716 716  718 718 718  719 719 719  720 720 720  726 726 726  721 721 721  717 717 717  708 708 708  708 708 708  711 711 711  712 712 712  714 714 714  715 715 715  715 715 715  716 716 716  716 716 716  716 716 716  716 716 716  715 715 715  714 714 714  714 714 714  711 711 711  711 711 711  708 708 708  706 706 706  705 705 705  703 703 703  703 703 703  701 701 701  699 699 699  699 699 699  698 698 698  697 697 697  697 697 697  696 696 696  696 696 696  695 695 695  694 694 694  695 695 695  694 694 694  695 695 695  696 696 696  695 695 695  697 697 697  697 697 697  698 698 698  698 698 698  695 695 695  0 0 0  687 687 687  684 684 684  684 684 684  681 681 681  680 680 680  679 679 679  677 677 677  676 676 676  675 675 675  674 674 674  674 674 674  676 676 676  678 678 678  681 681 681  681 681 681  683 683 683  686 686 686  686 686 686  0 0 0  0 0 0  0 0 0  0 0 0  0 0 0  0 0 0  0 0 0  0 0 0  0 0 0  0 0 0  696 696 696  695 695 695  692 692 692  692 692 692  693 693 693  694
0 0 0  0 0 0  0 0 0  0 0 0  0 0 0  0 0 0  0 0 0  0 0 0  0 0 0  0 0 0  0 0 0  0 0 0  0 0 0  0 0 0  0 0 0  0 0 0  0 0 0  0 0 0  0 0 0  0 0 0  0 0 0  0 0 0  0 0 0  0 0 0  0 0 0  0 0 0  0 0 0  0 0 0  0 0 0  0 0 0  0 0 0  0 0 0  0 0 0  0 0 0  0 0 0  0 0 0  0 0 0  0 0 0  0 0 0  0 0 0  0 0 0  0 0 0  0 0 0  0 0 0  0 0 0  0 0 0  0 0 0  0 0 0  0 0 0  0 0 0  0 0 0  0 0 0  0 0 0  0 0 0  0 0 0  0 0 0  0 0 0  0 0 0  0 0 0  0 0 0  0 0 0  0 0 0  0 0 0  0 0 0  0 0 0  0 0 0  0 0 0  0 0 0  0 0 0  0 0 0  0 0 0  0 0 0  0 0 0  0 0 0  0 0 0  0 0 0  0 0 0  0 0 0  0 0 0  0 0 0  0 0 0  0 0 0  0 0 0  0 0 0  0 0 0  0 0 0  0 0 0  0 0 0  0 0 0  0 0 0  0 0 0  0 0 0  0 0 0  0 0 0  0 0 0  0 0 0  0 0 0  0 0 0  0 0 0  0 0 0  0 0 0  0 0 0  0 0 0  0 0 0  0 0 0  0 0 0  0 0 0  0 0 0  0 0 0  0 0 0  0 0 0  0 0 0  0 0 0  0 0 0  0 0 0  0 0 0  0 0 0  0 0 0  0 0 0  0 0 0  0 0 0  0 0 0  0 0 0  0 0 0  0 0 0  0 0 0  0 0 0  0 0 0  0 0 0  0 0 0  0 0 0  0 0 0  0 0 0  0 0 0  0 0 0  0 0 0  0 0 0  0 0 0  0 0 0  0 0 0  0 0 0  0 0 0  0 0 0  0 0 0  0 0 0  0 0 0  0 0 0  0 0 0  0 0 0  0 0 0  0 0 0  0 0 0  0 0 0  0 0 0  0 0 0  0 0 0  0 0 0  0 0 0  0 0 0  0 0 0  0 0 0  0 0 0  0 0 0  0 0 0  0 0 0  0 0 0  0 0 0  0 0 0  0 0 0  0 0 0  587 587 587  587 587 587  586 586 586  587 587 587  587 587 587  587 587 587  587 587 587  588 588 588  589 589 589  590 590 590  591 591 591  0 0 0  593 593 593  594 594 594  595 595 595  598 598 598  600 600 600  602 602 602  604 604 604  609 609 609  610 610 610  611 611 611  611 611 611  611 611 611  613 613 613  614 614 614  613 613 613  0 0 0  623 623 623  631 631 631  0 0 0  634 634 634  633 633 633  635 635 635  634 634 634  633 633 633  635 635 635  636 636 636  637 637 637  638 638 638  639 639 639  640 640 640  642 642 642  644 644 644  645 645 645  646 646 646  647 647 647  648 648 648  650 650 650  650 650 650  651 651 651  653 653 653  653 653 653  654 654 654  655 655 655  655 655 655  656 656 656  657 657 657  657 657 657  658 658 658  659 659 659  660 660 660  661 661 661  662 662 662  663 663 663  664 664 664  664 664 664  665 665 665  666 666 666  666 666 666  667 667 667  667 667 667  666 666 666  667 667 667  667 667 667  668 668 668  669 669 669  669 669 669  669 669 669  669 669 669  669 669 669  670 670 670  669 669 669  668 668 668  669 669 669  670 670 670  670 670 670  671 671 671  672 672 672  672 672 672  673 673 673  674 674 674  675 675 675  676 676 676  677 677 677  678 678 678  679 679 679  680 680 680  681 681 681  683 683 683  683 683 683  685 685 685  686 686 686  687 687 687  688 688 688  690 690 690  691 691 691  693 693 693  695 695 695  697 697 697  699 699 699  702 702 702  703 703 703  706 706 706  0 0 0  709 709 709  708 708 708  708 708 708  706 706 706  707 707 707  706 706 706  707 707 707  707 707 707  706 706 706  706 706 706  707 707 707  707 707 707  709 709 709  709 709 709  711 711 711  711 711 711  713 713 713  715 715 715  716 716 716  717 717 717  718 718 718  724 724 724  718 718 718  715 715 715  706 706 706  708 708 708  710 710 710  712 712 712  713 713 713  714 714 714  715 715 715  716 716 716  716 716 716  715 715 715  716 716 716  714 714 714  713 713 713  713 713 713  712 712 712  712 712 712  710 710 710  708 708 708  707 707 707  705 705 705  704 704 704  703 703 703  700 700 700  700 700 700  699 699 699  698 698 698  697 697 697  696 696 696  696 696 696  695 695 695  694 694 694  694 694 694  694 694 694  694 694 694  695 695 695  695 695 695  696 696 696  697 697 697  699 699 699  702 702 702  0 0 0  0 0 0  0 0 0  680 680 680  679 679 679  676 676 676  676 676 676  675 675 675  675 675 675  675 675 675  675 675 675  676 676 676  676 676 676  676 676 676  677 677 677  678 678 678  678 678 678  679 679 679  682 682 682  681 681 681  683 683 683  0 0 0  0 0 0  0 0 0  0 0 0  0 0 0  0 0 0  0 0 0  0 0 0  691 691 691  688 688 688  686 686 686  683 683 683  686 686 686  688 688 688  691
0 0 0  0 0 0  0 0 0  0 0 0  0 0 0  0 0 0  0 0 0  0 0 0  0 0 0  0 0 0  0 0 0  0 0 0  0 0 0  0 0 0  0 0 0  0 0 0  0 0 0  0 0 0  0 0 0  0 0 0  0 0 0  0 0 0  0 0 0  0 0 0  0 0 0  0 0 0  0 0 0  0 0 0  0 0 0  0 0 0  0 0 0  0 0 0  0 0 0  0 0 0  0 0 0  0 0 0  0 0 0  0 0 0  0 0 0  0 0 0  0 0 0  0 0 0  0 0 0  0 0 0  0 0 0  0 0 0  0 0 0  0 0 0  0 0 0  0 0 0  0 0 0  0 0 0  0 0 0  0 0 0  0 0 0  0 0 0  0 0 0  0 0 0  0 0 0  0 0 0  0 0 0  0 0 0  0 0 0  0 0 0  0 0 0  0 0 0  0 0 0  0 0 0  0 0 0  0 0 0  0 0 0  0 0 0  0 0 0  0 0 0  0 0 0  0 0 0  0 0 0  0 0 0  0 0 0  0 0 0  0 0 0  0 0 0  0 0 0  0 0 0  0 0 0  0 0 0  0 0 0  0 0 0  0 0 0  0 0 0  0 0 0  0 0 0  0 0 0  0 0 0  0 0 0  0 0 0  0 0 0  0 0 0  0 0 0  0 0 0  0 0 0  0 0 0  0 0 0  0 0 0  0 0 0  0 0 0  0 0 0  0 0 0  0 0 0  0 0 0  0 0 0  0 0 0  0 0 0  0 0 0  0 0 0  0 0 0  0 0 0  0 0 0  0 0 0  0 0 0  0 0 0  0 0 0  0 0 0  0 0 0  0 0 0  0 0 0  0 0 0  0 0 0  0 0 0  0 0 0  0 0 0  0 0 0  0 0 0  0 0 0  0 0 0  0 0 0  0 0 0  0 0 0  0 0 0  0 0 0  0 0 0  0 0 0  0 0 0  0 0 0  0 0 0  0 0 0  0 0 0  0 0 0  0 0 0  0 0 0  0 0 0  0 0 0  0 0 0  0 0 0  0 0 0  0 0 0  0 0 0  0 0 0  0 0 0  0 0 0  0 0 0  0 0 0  0 0 0  0 0 0  0 0 0  0 0 0  0 0 0  0 0 0  0 0 0  588 588 588  588 588 588  587 587 587  587 587 587  588 588 588  588 588 588  588 588 588  588 588 588  589 589 589  589 589 589  591 591 591  592 592 592  593 593 593  594 594 594  595 595 595  596 596 596  599 599 599  600 600 600  602 602 602  605 605 605  608 608 608  0 0 0  0 0 0  0 0 0  614 614 614  617 617 617  617 617 617  0 0 0  0 0 0  0 0 0  0 0 0  0 0 0  633 633 633  632 632 632  634 634 634  633 633 633  633 633 633  634 634 634  635 635 635  636 636 636  638 638 638  639 639 639  640 640 640  642 642 642  643 643 643  644 644 644  646 646 646  647 647 647  648 648 648  649 649 649  650 650 650  651 651 651  652 652 652  652 652 652  653 653 653  654 654 654  654 654 654  655 655 655  656 656 656  656 656 656  658 658 658  659 659 659  660 660 660  661 661 661  662 662 662  663 663 663  664 664 664  664 664 664  665 665 665  665 665 665  665 665 665  666 666 666  666 666 666  666 666 666  667 667 667  667 667 667  667 667 667  668 668 668  668 668 668  669 669 669  669 669 669  668 668 668  669 669 669  669 669 669  668 668 668  669 669 669  669 669 669  670 670 670  671 671 671  672 672 672  673 673 673  674 674 674  674 674 674  675 675 675  676 676 676  677 677 677  678 678 678  679 679 679  680 680 680  681 681 681  682 682 682  682 682 682  683 683 683  684 684 684  685 685 685  687 687 687  689 689 689  691 691 691  693 693 693  694 694 694  695 695 695  698 698 698  700 700 700  702 702 702  704 704 704  0 0 0  708 708 708  708 708 708  707 707 707  706 706 706  707 707 707  706 706 706  707 707 707  707 707 707  706 706 706  706 706 706  707 707 707  707 707 707  708 708 708  709 709 709  710 710 710  710 710 710  712 712 712  713 713 713  714 714 714  713 713 713  714 714 714  715 715 715  714 714 714  713 713 713  710 710 710  709 709 709  710 710 710  711 711 711  712 712 712  713 713 713  714 714 714  715 715 715  715 715 715  714 714 714  715 715 715  714 714 714  714 714 714  714 714 714  713 713 713  713 713 713  711 711 711  709 709 709  709 709 709  706 706 706  705 705 705  703 703 703  701 701 701  701 701 701  699 699 699  698 698 698  697 697 697  695 695 695  695 695 695  694 694 694  694 694 694  694 694 694  693 693 693  693 693 693  693 693 693  694 694 694  695 695 695  696 696 696  698 698 698  701 701 701  707 707 707  698 698 698  0 0 0  0 0 0  675 675 675  674 674 674  674 674 674  674 674 674  675 675 675  675 675 675  674 674 674  675 675 675  674 674 674  674 674 674  674 674 674  675 675 675  675 675 675  676 676 676  677 677 677  678 678 678  678 678 678  0 0 0  0 0 0  0 0 0  0 0 0  0 0 0  0 0 0  0 0 0  0 0 0  0 0 0  684 684 684  683 683 683  682 682 682  685 685 685  687 687 687  690
0 0 0  0 0 0  0 0 0  0 0 0  0 0 0  0 0 0  0 0 0  0 0 0  0 0 0  0 0 0  0 0 0  0 0 0  0 0 0  0 0 0  0 0 0  0 0 0  0 0 0  0 0 0  0 0 0  0 0 0  0 0 0  0 0 0  0 0 0  0 0 0  0 0 0  0 0 0  0 0 0  0 0 0  0 0 0  0 0 0  0 0 0  0 0 0  0 0 0  0 0 0  0 0 0  0 0 0  0 0 0  0 0 0  0 0 0  0 0 0  0 0 0  0 0 0  0 0 0  0 0 0  0 0 0  0 0 0  0 0 0  0 0 0  0 0 0  0 0 0  0 0 0  0 0 0  0 0 0  0 0 0  0 0 0  0 0 0  0 0 0  0 0 0  0 0 0  0 0 0  0 0 0  0 0 0  0 0 0  0 0 0  0 0 0  0 0 0  0 0 0  0 0 0  0 0 0  0 0 0  0 0 0  0 0 0  0 0 0  0 0 0  0 0 0  0 0 0  0 0 0  0 0 0  0 0 0  0 0 0  0 0 0  0 0 0  0 0 0  0 0 0  0 0 0  0 0 0  0 0 0  0 0 0  0 0 0  0 0 0  0 0 0  0 0 0  0 0 0  0 0 0  0 0 0  0 0 0  0 0 0  0 0 0  0 0 0  0 0 0  0 0 0  0 0 0  0 0 0  0 0 0  0 0 0  0 0 0  0 0 0  0 0 0  0 0 0  0 0 0  0 0 0  0 0 0  0 0 0  0 0 0  0 0 0  0 0 0  0 0 0  0 0 0  0 0 0  0 0 0  0 0 0  0 0 0  0 0 0  0 0 0  0 0 0  0 0 0  0 0 0  0 0 0  0 0 0  0 0 0  0 0 0  0 0 0  0 0 0  0 0 0  0 0 0  0 0 0  0 0 0  0 0 0  0 0 0  0 0 0  0 0 0  0 0 0  0 0 0  0 0 0  0 0 0  0 0 0  0 0 0  681 681 681  680 680 680  0 0 0  0 0 0  0 0 0  0 0 0  0 0 0  0 0 0  0 0 0  0 0 0  0 0 0  0 0 0  0 0 0  0 0 0  0 0 0  0 0 0  0 0 0  0 0 0  0 0 0  0 0 0  0 0 0  0 0 0  588 588 588  588 588 588  587 587 587  587 587 587  588 588 588  589 589 589  589 589 589  589 589 589  590 590 590  590 590 590  591 591 591  592 592 592  594 594 594  594 594 594  595 595 595  596 596 596  599 599 599  600 600 600  602 602 602  605 605 605  607 607 607  0 0 0  0 0 0  0 0 0  0 0 0  619 619 619  621 621 621  0 0 0  0 0 0  0 0 0  0 0 0  630 630 630  630 630 630  630 630 630  632 632 632  632 632 632  632 632 632  634 634 634  635 635 635  636 636 636  638 638 638  639 639 639  640 640 640  642 642 642  643 643 643  644 644 644  646 646 646  647 647 647  648 648 648  649 649 649  649 649 649  650 650 650  651 651 651  651 651 651  653 653 653  653 653 653  653 653 653  654 654 654  655 655 655  656 656 656  658 658 658  659 659 659  660 660 660  661 661 661  662 662 662  663 663 663  663 663 663  663 663 663  664 664 664  664 664 664  664 664 664  665 665 665  666 666 666  666 666 666  667 667 667  668 668 668  669 669 669  669 669 669  669 669 669  668 668 668  668 668 668  668 668 668  669 669 669  668 668 668  668 668 668  669 669 669  669 669 669  670 670 670  671 671 671  672 672 672  673 673 673  674 674 674  674 674 674  676 676 676  676 676 676  677 677 677  678 678 678  678 678 678  679 679 679  680 680 680  681 681 681  681 681 681  682 682 682  683 683 683  684 684 684  685 685 685  686 686 686  0 0 0  692 692 692  693 693 693  694 694 694  697 697 697  699 699 699  700 700 700  702 702 702  703 703 703  0 0 0  705 705 705  706 706 706  706 706 706  707 707 707  706 706 706  708 708 708  708 708 708  707 707 707  707 707 707  707 707 707  708 708 708  708 708 708  708 708 708  709 709 709  710 710 710  710 710 710  711 711 711  712 712 712  712 712 712  713 713 713  712 712 712  712 712 712  712 712 712  711 711 711  710 710 710  711 711 711  711 711 711  713 713 713  713 713 713  713 713 713  714 714 714  714 714 714  714 714 714  714 714 714  714 714 714  714 714 714  714 714 714  714 714 714  714 714 714  713 713 713  711 711 711  710 710 710  707 707 707  704 704 704  703 703 703  700 700 700  700 700 700  699 699 699  698 698 698  696 696 696  695 695 695  695 695 695  693 693 693  693 693 693  693 693 693  692 692 692  692 692 692  692 692 692  692 692 692  693 693 693  695 695 695  696 696 696  699 699 699  0 0 0  0 0 0  0 0 0  677 677 677  676 676 676  674 674 674  674 674 674  674 674 674  674 674 674  674 674 674  673 673 673  673 673 673  672 672 672  672 672 672  672 672 672  672 672 672  673 673 673  674 674 674  674 674 674  674 674 674  675 675 675  0 0 0  0 0 0  0 0 0  0 0 0  0 0 0  0 0 0  0 0 0  0 0 0  0 0 0  687 687 687  682 682 682  680 680 680  684 684 684  685 685 685  687
0 0 0  0 0 0  0 0 0  0 0 0  0 0 0  0 0 0  0 0 0  0 0 0  0 0 0  0 0 0  0 0 0  0 0 0  0 0 0  0 0 0  0 0 0  0 0 0  0 0 0  0 0 0  0 0 0  0 0 0  0 0 0  0 0 0  0 0 0  0 0 0  0 0 0  0 0 0  0 0 0  0 0 0  0 0 0  0 0 0  0 0 0  0 0 0  0 0 0  0 0 0  0 0 0  0 0 0  0 0 0  0 0 0  0 0 0  0 0 0  0 0 0  0 0 0  0 0 0  0 0 0  0 0 0  0 0 0  0 0 0  0 0 0  0 0 0  0 0 0  0 0 0  0 0 0  0 0 0  0 0 0  0 0 0  0 0 0  0 0 0  0 0 0  0 0 0  0 0 0  0 0 0  0 0 0  0 0 0  0 0 0  0 0 0  0 0 0  0 0 0  0 0 0  0 0 0  0 0 0  0 0 0  0 0 0  0 0 0  0 0 0  0 0 0  0 0 0  0 0 0  0 0 0  0 0 0  0 0 0  0 0 0  0 0 0  0 0 0  0 0 0  0 0 0  0 0 0  0 0 0  0 0 0  0 0 0  0 0 0  0 0 0  0 0 0  0 0 0  0 0 0  0 0 0  0 0 0  0 0 0  0 0 0  0 0 0  0 0 0  0 0 0  0 0 0  0 0 0  0 0 0  0 0 0  0 0 0  0 0 0  0 0 0  0 0 0  0 0 0  0 0 0  0 0 0  0 0 0  0 0 0  0 0 0  0 0 0  0 0 0  0 0 0  0 0 0  0 0 0  0 0 0  0 0 0  0 0 0  0 0 0  0 0 0  0 0 0  0 0 0  0 0 0  0 0 0  0 0 0  0 0 0  0 0 0  0 0 0  0 0 0  0 0 0  0 0 0  0 0 0  0 0 0  0 0 0  0 0 0  0 0 0  0 0 0  0 0 0  0 0 0  0 0 0  0 0 0  0 0 0  676 676 676  676 676 676  0 0 0  0 0 0  0 0 0  0 0 0  0 0 0  0 0 0  0 0 0  0 0 0  0 0 0  0 0 0  0 0 0  0 0 0  0 0 0  0 0 0  0 0 0  0 0 0  0 0 0  0 0 0  0 0 0  0 0 0  0 0 0  0 0 0  0 0 0  0 0 0  590 590 590  590 590 590  590 590 590  590 590 590  590 590 590  590 590 590  592 592 592  593 593 593  593 593 593  594 594 594  596 596 596  597 597 597  599 599 599  601 601 601  603 603 603  606 606 606  609 609 609  612 612 612  0 0 0  0 0 0  0 0 0  622 622 622  622 622 622  0 0 0  0 0 0  626 626 626  626 626 626  628 628 628  628 628 628  629 629 629  630 630 630  631 631 631  632 632 632  633 633 633  634 634 634  635 635 635  637 637 637  638 638 638  640 640 640  642 642 642  643 643 643  644 644 644  646 646 646  646 646 646  647 647 647  649 649 649  649 649 649  650 650 650  651 651 651  650 650 650  652 652 652  653 653 653  653 653 653  654 654 654  655 655 655  656 656 656  657 657 657  658 658 658  659 659 659  660 660 660  661 661 661  662 662 662  663 663 663  663 663 663  664 664 664  664 664 664  663 663 663  664 664 664  665 665 665  666 666 666  667 667 667  668 668 668  670 670 670  670 670 670  670 670 670  669 669 669  668 668 668  668 668 668  668 668 668  668 668 668  667 667 667  669 669 669  669 669 669  669 669 669  671 671 671  672 672 672  673 673 673  674 674 674  675 675 675  676 676 676  676 676 676  677 677 677  678 678 678  678 678 678  678 678 678  679 679 679  680 680 680  680 680 680  681 681 681  683 683 683  684 684 684  685 685 685  685 685 685  0 0 0  0 0 0  693 693 693  694 694 694  696 696 696  698 698 698  699 699 699  701 701 701  701 701 701  703 703 703  705 705 705  705 705 705  706 706 706  707 707 707  707 707 707  708 708 708  708 708 708  708 708 708  708 708 708  708 708 708  708 708 708  708 708 708  709 709 709  710 710 710  710 710 710  710 710 710  711 711 711  711 711 711  710 710 710  712 712 712  711 711 711  712 712 712  712 712 712  711 711 711  710 710 710  711 711 711  711 711 711  713 713 713  713 713 713  712 712 712  713 713 713  713 713 713  714 714 714  714 714 714  714 714 714  715 715 715  715 715 715  714 714 714  714 714 714  713 713 713  711 711 711  710 710 710  707 707 707  705 705 705  703 703 703  700 700 700  700 700 700  698 698 698  698 698 698  696 696 696  694 694 694  694 694 694  693 693 693  693 693 693  692 692 692  691 691 691  691 691 691  691 691 691  691 691 691  691 691 691  692 692 692  693 693 693  692 692 692  0 0 0  0 0 0  0 0 0  677 677 677  676 676 676  674 674 674  673 673 673  673 673 673  673 673 673  673 673 673  672 672 672  672 672 672  672 672 672  672 672 672  672 672 672  672 672 672  672 672 672  673 673 673  673 673 673  674 674 674  673 673 673  0 0 0  0 0 0  0 0 0  0 0 0  0 0 0  0 0 0  0 0 0  0 0 0  0 0 0  0 0 0  684 684 684  682 682 682  685 685 685  686 686 686  687
0 0 0  0 0 0  0 0 0  0 0 0  0 0 0  0 0 0  0 0 0  0 0 0  0 0 0  0 0 0  0 0 0  0 0 0  0 0 0  0 0 0  0 0 0  0 0 0  0 0 0  0 0 0  0 0 0  0 0 0  0 0 0  0 0 0  0 0 0  0 0 0  0 0 0  0 0 0  0 0 0  0 0 0  0 0 0  0 0 0  0 0 0  0 0 0  0 0 0  0 0 0  0 0 0  0 0 0  0 0 0  0 0 0  0 0 0  0 0 0  0 0 0  0 0 0  0 0 0  0 0 0  0 0 0  0 0 0  0 0 0  0 0 0  0 0 0  0 0 0  0 0 0  0 0 0  0 0 0  0 0 0  0 0 0  0 0 0  0 0 0  0 0 0  0 0 0  0 0 0  0 0 0  0 0 0  0 0 0  0 0 0  0 0 0  0 0 0  0 0 0  0 0 0  0 0 0  0 0 0  0 0 0  0 0 0  0 0 0  0 0 0  0 0 0  0 0 0  0 0 0  0 0 0  0 0 0  0 0 0  0 0 0  0 0 0  0 0 0  0 0 0  0 0 0  0 0 0  0 0 0  0 0 0  0 0 0  0 0 0  0 0 0  0 0 0  0 0 0  0 0 0  0 0 0  0 0 0  0 0 0  0 0 0  0 0 0  0 0 0  0 0 0  0 0 0  0 0 0  0 0 0  0 0 0  0 0 0  0 0 0  0 0 0  0 0 0  0 0 0  0 0 0  0 0 0  0 0 0  0 0 0  0 0 0  0 0 0  0 0 0  0 0 0  0 0 0  0 0 0  0 0 0  0 0 0  0 0 0  0 0 0  0 0 0  0 0 0  0 0 0  0 0 0  0 0 0  0 0 0  0 0 0  0 0 0  0 0 0  0 0 0  0 0 0  0 0 0  0 0 0  0 0 0  0 0 0  0 0 0  0 0 0  0 0 0  0 0 0  0 0 0  0 0 0  0 0 0  0 0 0  678 678 678  680 680 680  0 0 0  0 0 0  0 0 0  732 732 732  0 0 0  0 0 0  0 0 0  0 0 0  0 0 0  0 0 0  0 0 0  0 0 0  0 0 0  0 0 0  0 0 0  0 0 0  0 0 0  0 0 0  0 0 0  0 0 0  0 0 0  0 0 0  0 0 0  0 0 0  0 0 0  0 0 0  0 0 0  0 0 0  0 0 0  0 0 0  593 593 593  594 594 594  595 595 595  596 596 596  597 597 597  599 599 599  601 601 601  603 603 603  605 605 605  608 608 608  612 612 612  614 614 614  617 617 617  615 615 615  615 615 615  618 618 618  619 619 619  621 621 621  624 624 624  626 626 626  628 628 628  629 629 629  629 629 629  628 628 628  630 630 630  631 631 631  631 631 631  633 633 633  634 634 634  635 635 635  637 637 637  638 638 638  639 639 639  641 641 641  643 643 643  644 644 644  646 646 646  646 646 646  647 647 647  649 649 649  649 649 649  650 650 650  650 650 650  650 650 650  651 651 651  652 652 652  652 652 652  653 653 653  654 654 654  655 655 655  657 657 657  658 658 658  659 659 659  660 660 660  661 661 661  662 662 662  663 663 663  663 663 663  664 664 664  664 664 664  663 663 663  664 664 664  665 665 665  665 665 665  667 667 667  668 668 668  671 671 671  671 671 671  670 670 670  669 669 669  668 668 668  667 667 667  668 668 668  668 668 668  667 667 667  669 669 669  669 669 669  670 670 670  671 671 671  672 672 672  673 673 673  674 674 674  674 674 674  676 676 676  676 676 676  676 676 676  677 677 677  677 677 677  678 678 678  679 679 679  680 680 680  680 680 680  682 682 682  683 683 683  684 684 684  685 685 685  686 686 686  0 0 0  0 0 0  693 693 693  694 694 694  696 696 696  697 697 697  698 698 698  699 699 699  700 700 700  701 701 701  703 703 703  705 705 705  706 706 706  708 708 708  709 709 709  710 710 710  710 710 710  709 709 709  709 709 709  709 709 709  708 708 708  708 708 708  709 709 709  710 710 710  710 710 710  709 709 709  711 711 711  710 710 710  709 709 709  710 710 710  709 709 709  709 709 709  709 709 709  709 709 709  711 711 711  712 712 712  711 711 711  713 713 713  712 712 712  711 711 711  713 713 713  713 713 713  714 714 714  715 715 715  715 715 715  715 715 715  715 715 715  714 714 714  714 714 714  713 713 713  711 711 711  710 710 710  707 707 707  706 706 706  704 704 704  701 701 701  700 700 700  698 698 698  698 698 698  696 696 696  694 694 694  694 694 694  693 693 693  693 693 693  693 693 693  691 691 691  691 691 691  690 690 690  690 690 690  690 690 690  689 689 689  690 690 690  689 689 689  686 686 686  683 683 683  679 679 679  677 677 677  675 675 675  674 674 674  673 673 673  672 672 672  673 673 673  672 672 672  671 671 671  672 672 672  672 672 672  672 672 672  672 672 672  672 672 672  672 672 672  673 673 673  672 672 672  673 673 673  672 672 672  0 0 0  0 0 0  0 0 0  0 0 0  0 0 0  0 0 0  0 0 0  0 0 0  0 0 0  692 692 692  688 688 688  687 687 687  689 689 689  688 688 688  686
0 0 0  0 0 0  0 0 0  0 0 0  0 0 0  0 0 0  0 0 0  0 0 0  0 0 0  0 0 0  0 0 0  0 0 0  0 0 0  0 0 0  0 0 0  0 0 0  0 0 0  0 0 0  0 0 0  0 0 0  0 0 0  0 0 0  0 0 0  0 0 0  0 0 0  0 0 0  0 0 0  0 0 0  0 0 0  0 0 0  0 0 0  0 0 0  0 0 0  0 0 0  0 0 0  0 0 0  0 0 0  0 0 0  0 0 0  0 0 0  0 0 0  0 0 0  0 0 0  0 0 0  0 0 0  0 0 0  0 0 0  0 0 0  0 0 0  0 0 0  0 0 0  0 0 0  0 0 0  0 0 0  0 0 0  0 0 0  0 0 0  0 0 0  0 0 0  0 0 0  0 0 0  0 0 0  0 0 0  0 0 0  0 0 0  0 0 0  0 0 0  0 0 0  0 0 0  0 0 0  0 0 0  0 0 0  0 0 0  0 0 0  0 0 0  0 0 0  0 0 0  0 0 0  0 0 0  0 0 0  0 0 0  0 0 0  0 0 0  0 0 0  0 0 0  0 0 0  0 0 0  0 0 0  0 0 0  0 0 0  0 0 0  0 0 0  0 0 0  0 0 0  0 0 0  0 0 0  0 0 0  0 0 0  0 0 0  0 0 0  0 0 0  0 0 0  0 0 0  0 0 0  0 0 0  0 0 0  0 0 0  0 0 0  0 0 0  0 0 0  0 0 0  0 0 0  0 0 0  0 0 0  0 0 0  0 0 0  0 0 0  0 0 0  0 0 0  0 0 0  0 0 0  0 0 0  0 0 0  0 0 0  0 0 0  0 0 0  0 0 0  0 0 0  0 0 0  0 0 0  0 0 0  0 0 0  0 0 0  0 0 0  0 0 0  0 0 0  0 0 0  0 0 0  0 0 0  0 0 0  0 0 0  0 0 0  0 0 0  0 0 0  0 0 0  0 0 0  0 0 0  681 681 681  684 684 684  0 0 0  0 0 0  0 0 0  739 739 739  0 0 0  0 0 0  0 0 0  0 0 0  0 0 0  0 0 0  0 0 0  0 0 0  0 0 0  0 0 0  0 0 0  0 0 0  0 0 0  0 0 0  0 0 0  0 0 0  0 0 0  0 0 0  0 0 0  0 0 0  0 0 0  0 0 0  0 0 0  0 0 0  0 0 0  0 0 0  0 0 0  596 596 596  596 596 596  597 597 597  599 599 599  600 600 600  604 604 604  606 606 606  608 608 608  611 611 611  615 615 615  616 616 616  618 618 618  617 617 617  615 615 615  618 618 618  620 620 620  621 621 621  623 623 623  625 625 625  626 626 626  628 628 628  628 628 628  628 628 628  630 630 630  630 630 630  631 631 631  633 633 633  634 634 634  635 635 635  637 637 637  638 638 638  639 639 639  641 641 641  642 642 642  644 644 644  646 646 646  646 646 646  647 647 647  648 648 648  648 648 648  649 649 649  650 650 650  650 650 650  651 651 651  652 652 652  652 652 652  653 653 653  654 654 654  655 655 655  656 656 656  657 657 657  659 659 659  660 660 660  660 660 660  662 662 662  662 662 662  662 662 662  663 663 663  663 663 663  663 663 663  664 664 664  664 664 664  665 665 665  666 666 666  667 667 667  668 668 668  666 666 666  667 667 667  668 668 668  668 668 668  666 666 666  667 667 667  667 667 667  667 667 667  669 669 669  669 669 669  670 670 670  671 671 671  672 672 672  673 673 673  674 674 674  674 674 674  676 676 676  676 676 676  676 676 676  677 677 677  677 677 677  678 678 678  679 679 679  680 680 680  681 681 681  682 682 682  683 683 683  684 684 684  685 685 685  687 687 687  0 0 0  0 0 0  693 693 693  693 693 693  696 696 696  698 698 698  698 698 698  700 700 700  701 701 701  702 702 702  703 703 703  705 705 705  706 706 706  709 709 709  711 711 711  711 711 711  711 711 711  710 710 710  710 710 710  709 709 709  708 708 708  709 709 709  709 709 709  710 710 710  710 710 710  709 709 709  711 711 711  712 712 712  712 712 712  715 715 715  717 717 717  717 717 717  715 715 715  714 714 714  713 713 713  713 713 713  711 711 711  713 713 713  711 711 711  710 710 710  711 711 711  712 712 712  714 714 714  715 715 715  715 715 715  716 716 716  716 716 716  714 714 714  714 714 714  713 713 713  711 711 711  710 710 710  708 708 708  708 708 708  706 706 706  703 703 703  702 702 702  699 699 699  698 698 698  696 696 696  694 694 694  694 694 694  693 693 693  693 693 693  693 693 693  691 691 691  692 692 692  690 690 690  688 688 688  688 688 688  685 685 685  686 686 686  683 683 683  681 681 681  679 679 679  677 677 677  677 677 677  675 675 675  674 674 674  673 673 673  672 672 672  673 673 673  672 672 672  671 671 671  671 671 671  671 671 671  672 672 672  672 672 672  671 671 671  672 672 672  672 672 672  671 671 671  671 671 671  670 670 670  669 669 669  669 669 669  0 0 0  0 0 0  0 0 0  0 0 0  0 0 0  0 0 0  0 0 0  0 0 0  687 687 687  688 688 688  688 688 688  687 687 687  686
